257.461617 -72.889407 -38.353829 154.000000 0.952721 -0.267245 -0.144576
257.452940 -72.959279 -38.281527 154.000000 0.952721 -0.267245 -0.144576
257.445421 -73.048369 -38.203135 154.000000 0.952721 -0.267245 -0.144576
257.610313 -71.672866 -39.650781 154.000000 0.952721 -0.267245 -0.144576
257.613764 -71.732910 -39.554724 154.000000 0.952721 -0.267245 -0.144576
257.592966 -71.805028 -39.519435 154.000000 0.952721 -0.267245 -0.144576
257.572378 -71.880128 -39.459689 154.000000 0.952721 -0.267245 -0.144576
257.580101 -71.984731 -39.353207 154.000000 0.952721 -0.267245 -0.144576
257.563261 -72.070280 -39.287697 154.000000 0.952721 -0.267245 -0.144576
257.570113 -72.126513 -39.218055 154.000000 0.952721 -0.267245 -0.144576
257.534749 -72.221081 -39.153986 154.000000 0.952721 -0.267245 -0.144576
257.525455 -72.270311 -39.078802 154.000000 0.952721 -0.267245 -0.144576
257.524403 -72.355745 -39.011408 154.000000 0.952721 -0.267245 -0.144576
257.515405 -72.413800 -38.952546 154.000000 0.952721 -0.267245 -0.144576
257.513470 -72.498124 -38.866857 154.000000 0.952721 -0.267245 -0.144576
257.487612 -72.578604 -38.776331 154.000000 0.952721 -0.267245 -0.144576
257.482528 -72.667035 -38.730981 154.000000 0.952721 -0.267245 -0.144576
257.482622 -72.737240 -38.670610 154.000000 0.952721 -0.267245 -0.144576
257.468024 -72.808601 -38.564003 154.000000 0.952721 -0.267245 -0.144576
257.436958 -72.881556 -38.497487 154.000000 0.952721 -0.267245 -0.144576
257.432033 -72.964613 -38.441482 154.000000 0.952721 -0.267245 -0.144576
257.409309 -73.041560 -38.353989 154.000000 0.952721 -0.267245 -0.144576
257.415209 -73.126325 -38.317469 154.000000 0.952721 -0.267245 -0.144576
257.601149 -71.715703 -39.731933 154.000000 0.952721 -0.267245 -0.144576
257.577923 -71.787598 -39.653515 154.000000 0.952721 -0.267245 -0.144576
257.576206 -71.892841 -39.564239 154.000000 0.952721 -0.267245 -0.144576
257.546403 -71.953898 -39.498021 154.000000 0.952721 -0.267245 -0.144576
257.553033 -72.041424 -39.445176 154.000000 0.952721 -0.267245 -0.144576
257.541237 -72.109502 -39.373362 154.000000 0.952721 -0.267245 -0.144576
257.525216 -72.184189 -39.296279 154.000000 0.952721 -0.267245 -0.144576
257.509620 -72.268866 -39.243736 154.000000 0.952721 -0.267245 -0.144576
257.488728 -72.323335 -39.154143 154.000000 0.952721 -0.267245 -0.144576
257.484421 -72.392936 -39.079238 154.000000 0.952721 -0.267245 -0.144576
257.498442 -72.476576 -39.007375 154.000000 0.952721 -0.267245 -0.144576
257.477741 -72.560898 -38.948157 154.000000 0.952721 -0.267245 -0.144576
257.451586 -72.639459 -38.869335 154.000000 0.952721 -0.267245 -0.144576
257.443765 -72.721186 -38.793289 154.000000 0.952721 -0.267245 -0.144576
257.437525 -72.809836 -38.729252 154.000000 0.952721 -0.267245 -0.144576
257.437660 -72.861257 -38.665319 154.000000 0.952721 -0.267245 -0.144576
257.414440 -72.963503 -38.595621 154.000000 0.952721 -0.267245 -0.144576
257.414611 -73.023588 -38.526841 154.000000 0.952721 -0.267245 -0.144576
257.394755 -73.105293 -38.452176 154.000000 0.952721 -0.267245 -0.144576
257.390708 -73.195669 -38.382888 154.000000 0.952721 -0.267245 -0.144576
257.557533 -71.793242 -39.794068 154.000000 0.952721 -0.267245 -0.144576
257.560516 -71.872532 -39.716817 154.000000 0.952721 -0.267245 -0.144576
257.538011 -71.965749 -39.649804 154.000000 0.952721 -0.267245 -0.144576
257.521612 -72.021036 -39.598380 154.000000 0.952721 -0.267245 -0.144576
257.519855 -72.092282 -39.503996 154.000000 0.952721 -0.267245 -0.144576
257.514057 -72.166026 -39.448546 154.000000 0.952721 -0.267245 -0.144576
257.494303 -72.259867 -39.365019 154.000000 0.952721 -0.267245 -0.144576
257.485161 -72.316958 -39.319833 154.000000 0.952721 -0.267245 -0.144576
257.465479 -72.413023 -39.245371 154.000000 0.952721 -0.267245 -0.144576
257.472777 -72.474358 -39.157084 154.000000 0.952721 -0.267245 -0.144576
257.453664 -72.556815 -39.103594 154.000000 0.952721 -0.267245 -0.144576
257.452482 -72.632225 -39.019866 154.000000 0.952721 -0.267245 -0.144576
257.444329 -72.710005 -38.945657 154.000000 0.952721 -0.267245 -0.144576
257.419601 -72.792993 -38.887448 154.000000 0.952721 -0.267245 -0.144576
257.433347 -72.854986 -38.809694 154.000000 0.952721 -0.267245 -0.144576
257.410422 -72.936995 -38.735330 154.000000 0.952721 -0.267245 -0.144576
257.377539 -73.007935 -38.645765 154.000000 0.952721 -0.267245 -0.144576
257.395561 -73.076642 -38.583742 154.000000 0.952721 -0.267245 -0.144576
257.360166 -73.170500 -38.525504 154.000000 0.952721 -0.267245 -0.144576
257.357840 -73.240881 -38.444881 154.000000 0.952721 -0.267245 -0.144576
257.529590 -71.855609 -39.884072 154.000000 0.952721 -0.267245 -0.144576
257.519131 -71.934266 -39.803121 154.000000 0.952721 -0.267245 -0.144576
257.499588 -72.012226 -39.733251 154.000000 0.952721 -0.267245 -0.144576
257.490094 -72.100000 -39.640683 154.000000 0.952721 -0.267245 -0.144576
257.467147 -72.176850 -39.581703 154.000000 0.952721 -0.267245 -0.144576
257.476493 -72.244899 -39.513794 154.000000 0.952721 -0.267245 -0.144576
257.469041 -72.312154 -39.460078 154.000000 0.952721 -0.267245 -0.144576
257.466511 -72.393034 -39.383437 154.000000 0.952721 -0.267245 -0.144576
257.454398 -72.466541 -39.333879 154.000000 0.952721 -0.267245 -0.144576
257.429126 -72.546196 -39.225457 154.000000 0.952721 -0.267245 -0.144576
257.421901 -72.607678 -39.146700 154.000000 0.952721 -0.267245 -0.144576
257.411954 -72.707469 -39.100237 154.000000 0.952721 -0.267245 -0.144576
257.412988 -72.781898 -39.021754 154.000000 0.952721 -0.267245 -0.144576
257.401293 -72.856251 -38.953568 154.000000 0.952721 -0.267245 -0.144576
257.388621 -72.928078 -38.870821 154.000000 0.952721 -0.267245 -0.144576
257.367859 -73.004528 -38.818226 154.000000 0.952721 -0.267245 -0.144576
257.368283 -73.081526 -38.744785 154.000000 0.952721 -0.267245 -0.144576
257.354502 -73.165928 -38.675351 154.000000 0.952721 -0.267245 -0.144576
257.338343 -73.231350 -38.576510 154.000000 0.952721 -0.267245 -0.144576
257.333529 -73.313942 -38.515591 154.000000 0.952721 -0.267245 -0.144576
257.495212 -71.921663 -39.943474 154.000000 0.952721 -0.267245 -0.144576
257.477803 -72.008472 -39.885874 154.000000 0.952721 -0.267245 -0.144576
257.466196 -72.071331 -39.812063 154.000000 0.952721 -0.267245 -0.144576
257.479765 -72.161942 -39.757818 154.000000 0.952721 -0.267245 -0.144576
257.425002 -72.229813 -39.671063 154.000000 0.952721 -0.267245 -0.144576
257.464067 -72.314053 -39.610023 154.000000 0.952721 -0.267245 -0.144576
257.431592 -72.377513 -39.522766 154.000000 0.952721 -0.267245 -0.144576
257.415764 -72.446329 -39.461941 154.000000 0.952721 -0.267245 -0.144576
257.404928 -72.537018 -39.387320 154.000000 0.952721 -0.267245 -0.144576
257.415914 -72.627646 -39.315664 154.000000 0.952721 -0.267245 -0.144576
257.390995 -72.687327 -39.226767 154.000000 0.952721 -0.267245 -0.144576
257.394412 -72.773835 -39.184215 154.000000 0.952721 -0.267245 -0.144576
257.369778 -72.852027 -39.079409 154.000000 0.952721 -0.267245 -0.144576
257.360559 -72.925730 -39.008989 154.000000 0.952721 -0.267245 -0.144576
257.358806 -73.000457 -38.947736 154.000000 0.952721 -0.267245 -0.144576
257.329169 -73.084223 -38.876841 154.000000 0.952721 -0.267245 -0.144576
257.329131 -73.148039 -38.828902 154.000000 0.952721 -0.267245 -0.144576
257.325372 -73.229585 -38.746410 154.000000 0.952721 -0.267245 -0.144576
257.315893 -73.281325 -38.664343 154.000000 0.952721 -0.267245 -0.144576
257.308466 -73.395864 -38.599681 154.000000 0.952721 -0.267245 -0.144576
257.465633 -71.994273 -40.039711 154.000000 0.952721 -0.267245 -0.144576
257.447566 -72.077293 -39.971979 154.000000 0.952721 -0.267245 -0.144576
257.450376 -72.147168 -39.894060 154.000000 0.952721 -0.267245 -0.144576
257.439875 -72.220612 -39.827617 154.000000 0.952721 -0.267245 -0.144576
257.439570 -72.308677 -39.738510 154.000000 0.952721 -0.267245 -0.144576
257.436987 -72.369147 -39.658655 154.000000 0.952721 -0.267245 -0.144576
257.423342 -72.458671 -39.603240 154.000000 0.952721 -0.267245 -0.144576
257.389379 -72.532136 -39.527513 154.000000 0.952721 -0.267245 -0.144576
257.399069 -72.595787 -39.455392 154.000000 0.952721 -0.267245 -0.144576
257.365630 -72.666014 -39.386183 154.000000 0.952721 -0.267245 -0.144576
257.371798 -72.756852 -39.326236 154.000000 0.952721 -0.267245 -0.144576
257.352039 -72.848716 -39.239883 154.000000 0.952721 -0.267245 -0.144576
257.366274 -72.915795 -39.184935 154.000000 0.952721 -0.267245 -0.144576
257.350486 -73.001345 -39.099861 154.000000 0.952721 -0.267245 -0.144576
257.323498 -73.066308 -39.022384 154.000000 0.952721 -0.267245 -0.144576
257.307240 -73.135397 -38.963363 154.000000 0.952721 -0.267245 -0.144576
257.295731 -73.216782 -38.892536 154.000000 0.952721 -0.267245 -0.144576
257.280531 -73.305853 -38.812471 154.000000 0.952721 -0.267245 -0.144576
257.259146 -73.371786 -38.733650 154.000000 0.952721 -0.267245 -0.144576
257.273464 -73.456540 -38.669010 154.000000 0.952721 -0.267245 -0.144576
257.436940 -72.046975 -40.121992 154.000000 0.952721 -0.267245 -0.144576
257.433595 -72.129091 -40.047149 154.000000 0.952721 -0.267245 -0.144576
257.417523 -72.202706 -39.955866 154.000000 0.952721 -0.267245 -0.144576
257.409765 -72.285559 -39.886057 154.000000 0.952721 -0.267245 -0.144576
257.388696 -72.368826 -39.829434 154.000000 0.952721 -0.267245 -0.144576
257.381389 -72.458074 -39.745044 154.000000 0.952721 -0.267245 -0.144576
257.379477 -72.533607 -39.684779 154.000000 0.952721 -0.267245 -0.144576
257.364514 -72.584387 -39.602343 154.000000 0.952721 -0.267245 -0.144576
257.372517 -72.657145 -39.544319 154.000000 0.952721 -0.267245 -0.144576
257.353098 -72.748165 -39.462536 154.000000 0.952721 -0.267245 -0.144576
257.334785 -72.837598 -39.390075 154.000000 0.952721 -0.267245 -0.144576
257.319209 -72.904752 -39.313978 154.000000 0.952721 -0.267245 -0.144576
257.303958 -72.975748 -39.253041 154.000000 0.952721 -0.267245 -0.144576
257.305414 -73.054982 -39.168962 154.000000 0.952721 -0.267245 -0.144576
257.297132 -73.152164 -39.113815 154.000000 0.952721 -0.267245 -0.144576
257.271904 -73.217782 -39.019673 154.000000 0.952721 -0.267245 -0.144576
257.270141 -73.281561 -38.965164 154.000000 0.952721 -0.267245 -0.144576
257.243858 -73.368277 -38.899032 154.000000 0.952721 -0.267245 -0.144576
257.243076 -73.438787 -38.809850 154.000000 0.952721 -0.267245 -0.144576
257.239473 -73.502439 -38.744712 154.000000 0.952721 -0.267245 -0.144576
257.405926 -72.124482 -40.173382 154.000000 0.952721 -0.267245 -0.144576
257.413373 -72.201548 -40.116817 154.000000 0.952721 -0.267245 -0.144576
257.392731 -72.283050 -40.037719 154.000000 0.952721 -0.267245 -0.144576
257.377167 -72.358003 -39.970555 154.000000 0.952721 -0.267245 -0.144576
257.341344 -72.431874 -39.885080 154.000000 0.952721 -0.267245 -0.144576
257.363022 -72.498261 -39.822676 154.000000 0.952721 -0.267245 -0.144576
257.358530 -72.582229 -39.753661 154.000000 0.952721 -0.267245 -0.144576
257.313137 -72.663664 -39.679706 154.000000 0.952721 -0.267245 -0.144576
257.326950 -72.746351 -39.597796 154.000000 0.952721 -0.267245 -0.144576
257.304905 -72.813700 -39.528127 154.000000 0.952721 -0.267245 -0.144576
257.309879 -72.895812 -39.476143 154.000000 0.952721 -0.267245 -0.144576
257.288012 -72.968288 -39.404449 154.000000 0.952721 -0.267245 -0.144576
257.276177 -73.051921 -39.311049 154.000000 0.952721 -0.267245 -0.144576
257.266141 -73.132554 -39.269293 154.000000 0.952721 -0.267245 -0.144576
257.262734 -73.198043 -39.168022 154.000000 0.952721 -0.267245 -0.144576
257.246708 -73.279979 -39.108099 154.000000 0.952721 -0.267245 -0.144576
257.242053 -73.359034 -39.028543 154.000000 0.952721 -0.267245 -0.144576
257.230088 -73.430631 -38.965546 154.000000 0.952721 -0.267245 -0.144576
257.213283 -73.499077 -38.898378 154.000000 0.952721 -0.267245 -0.144576
257.200458 -73.580919 -38.840680 154.000000 0.952721 -0.267245 -0.144576
257.380978 -72.203130 -40.253683 154.000000 0.952721 -0.267245 -0.144576
257.373067 -72.255491 -40.178562 154.000000 0.952721 -0.267245 -0.144576
257.367098 -72.346591 -40.124455 154.000000 0.952721 -0.267245 -0.144576
257.359414 -72.420869 -40.030400 154.000000 0.952721 -0.267245 -0.144576
257.324414 -72.490897 -39.996536 154.000000 0.952721 -0.267245 -0.144576
257.325389 -72.578531 -39.902072 154.000000 0.952721 -0.267245 -0.144576
257.295064 -72.655028 -39.818481 154.000000 0.952721 -0.267245 -0.144576
257.296279 -72.721065 -39.754906 154.000000 0.952721 -0.267245 -0.144576
257.292312 -72.796472 -39.679131 154.000000 0.952721 -0.267245 -0.144576
257.298877 -72.881102 -39.618796 154.000000 0.952721 -0.267245 -0.144576
257.263190 -72.951237 -39.530341 154.000000 0.952721 -0.267245 -0.144576
257.256627 -73.032239 -39.463507 154.000000 0.952721 -0.267245 -0.144576
257.261242 -73.116259 -39.393242 154.000000 0.952721 -0.267245 -0.144576
257.249755 -73.187879 -39.306598 154.000000 0.952721 -0.267245 -0.144576
257.244307 -73.278021 -39.263536 154.000000 0.952721 -0.267245 -0.144576
257.225410 -73.341141 -39.192537 154.000000 0.952721 -0.267245 -0.144576
257.204187 -73.401680 -39.106012 154.000000 0.952721 -0.267245 -0.144576
257.198097 -73.523675 -39.053573 154.000000 0.952721 -0.267245 -0.144576
257.193091 -73.577384 -38.958367 154.000000 0.952721 -0.267245 -0.144576
257.173609 -73.641226 -38.905160 154.000000 0.952721 -0.267245 -0.144576
257.352867 -72.241133 -40.325848 154.000000 0.952721 -0.267245 -0.144576
257.326442 -72.330502 -40.259833 154.000000 0.952721 -0.267245 -0.144576
257.316637 -72.416118 -40.176551 154.000000 0.952721 -0.267245 -0.144576
257.300651 -72.494539 -40.112986 154.000000 0.952721 -0.267245 -0.144576
257.293345 -72.553515 -40.032525 154.000000 0.952721 -0.267245 -0.144576
257.324847 -72.638323 -39.978218 154.000000 0.952721 -0.267245 -0.144576
257.280907 -72.707327 -39.918493 154.000000 0.952721 -0.267245 -0.144576
257.252527 -72.778312 -39.830128 154.000000 0.952721 -0.267245 -0.144576
257.256358 -72.881657 -39.773033 154.000000 0.952721 -0.267245 -0.144576
257.249257 -72.961529 -39.700173 154.000000 0.952721 -0.267245 -0.144576
257.241593 -73.026786 -39.633344 154.000000 0.952721 -0.267245 -0.144576
257.219590 -73.091703 -39.548605 154.000000 0.952721 -0.267245 -0.144576
257.215995 -73.178479 -39.467953 154.000000 0.952721 -0.267245 -0.144576
257.195180 -73.231686 -39.408205 154.000000 0.952721 -0.267245 -0.144576
257.193194 -73.325174 -39.354063 154.000000 0.952721 -0.267245 -0.144576
257.184511 -73.395950 -39.258121 154.000000 0.952721 -0.267245 -0.144576
257.188227 -73.485278 -39.203540 154.000000 0.952721 -0.267245 -0.144576
257.178299 -73.553058 -39.134016 154.000000 0.952721 -0.267245 -0.144576
257.162322 -73.632764 -39.052770 154.000000 0.952721 -0.267245 -0.144576
257.144846 -73.723810 -38.962726 154.000000 0.952721 -0.267245 -0.144576
-256.493876 98.164466 3.834522 155.000000 -0.935241 0.353628 0.016497
-256.507975 98.048833 3.817623 155.000000 -0.935241 0.353628 0.016497
-256.569316 97.935070 3.798250 155.000000 -0.935241 0.353628 0.016497
-256.616264 97.857356 3.780280 155.000000 -0.935241 0.353628 0.016497
-256.647700 97.747731 3.751717 155.000000 -0.935241 0.353628 0.016497
-256.676346 97.667887 3.746434 155.000000 -0.935241 0.353628 0.016497
-256.726076 97.561373 3.738331 155.000000 -0.935241 0.353628 0.016497
-256.744773 97.473147 3.710356 155.000000 -0.935241 0.353628 0.016497
-256.793537 97.373991 3.691267 155.000000 -0.935241 0.353628 0.016497
-256.838156 97.279681 3.672903 155.000000 -0.935241 0.353628 0.016497
-256.857597 97.191766 3.647247 155.000000 -0.935241 0.353628 0.016497
-256.895096 97.076297 3.607099 155.000000 -0.935241 0.353628 0.016497
-256.923007 96.983961 3.573550 155.000000 -0.935241 0.353628 0.016497
-256.952049 96.918039 3.592595 155.000000 -0.935241 0.353628 0.016497
-256.993716 96.799376 3.551947 155.000000 -0.935241 0.353628 0.016497
-257.037029 96.692175 3.536451 155.000000 -0.935241 0.353628 0.016497
-257.092120 96.590130 3.517623 155.000000 -0.935241 0.353628 0.016497
-257.124919 96.511299 3.518352 155.000000 -0.935241 0.353628 0.016497
-257.142339 96.409562 3.479738 155.000000 -0.935241 0.353628 0.016497
-257.203374 96.301368 3.469726 155.000000 -0.935241 0.353628 0.016497
-256.517089 98.118103 3.919248 155.000000 -0.935241 0.353628 0.016497
-256.544746 98.022629 3.923320 155.000000 -0.935241 0.353628 0.016497
-256.588282 97.935656 3.900246 155.000000 -0.935241 0.353628 0.016497
-256.610303 97.846554 3.886964 155.000000 -0.935241 0.353628 0.016497
-256.626552 97.727147 3.867617 155.000000 -0.935241 0.353628 0.016497
-256.672970 97.635357 3.827900 155.000000 -0.935241 0.353628 0.016497
-256.733291 97.538595 3.830436 155.000000 -0.935241 0.353628 0.016497
-256.759103 97.457399 3.797046 155.000000 -0.935241 0.353628 0.016497
-256.789822 97.353609 3.803035 155.000000 -0.935241 0.353628 0.016497
-256.819802 97.234459 3.749139 155.000000 -0.935241 0.353628 0.016497
-256.855100 97.168725 3.751745 155.000000 -0.935241 0.353628 0.016497
-256.919227 97.051766 3.723423 155.000000 -0.935241 0.353628 0.016497
-256.925865 96.969996 3.703254 155.000000 -0.935241 0.353628 0.016497
-256.977538 96.885561 3.669398 155.000000 -0.935241 0.353628 0.016497
-257.005774 96.778941 3.675035 155.000000 -0.935241 0.353628 0.016497
-257.046876 96.687977 3.641604 155.000000 -0.935241 0.353628 0.016497
-257.099118 96.573645 3.644557 155.000000 -0.935241 0.353628 0.016497
-257.130468 96.472383 3.608930 155.000000 -0.935241 0.353628 0.016497
-257.157076 96.381959 3.591652 155.000000 -0.935241 0.353628 0.016497
-257.191442 96.297263 3.560723 155.000000 -0.935241 0.353628 0.016497
-256.508855 98.119857 4.054771 155.000000 -0.935241 0.353628 0.016497
-256.529699 98.004441 4.024781 155.000000 -0.935241 0.353628 0.016497
-256.574851 97.915167 3.999439 155.000000 -0.935241 0.353628 0.016497
-256.619537 97.812997 3.998902 155.000000 -0.935241 0.353628 0.016497
-256.650695 97.732755 3.953118 155.000000 -0.935241 0.353628 0.016497
-256.671522 97.636919 3.940686 155.000000 -0.935241 0.353628 0.016497
-256.715365 97.530062 3.920822 155.000000 -0.935241 0.353628 0.016497
-256.768262 97.423246 3.938534 155.000000 -0.935241 0.353628 0.016497
-256.793028 97.331679 3.867405 155.000000 -0.935241 0.353628 0.016497
-256.824625 97.238495 3.875056 155.000000 -0.935241 0.353628 0.016497
-256.868837 97.145035 3.849808 155.000000 -0.935241 0.353628 0.016497
-256.890471 97.054981 3.834451 155.000000 -0.935241 0.353628 0.016497
-256.952815 96.957833 3.810696 155.000000 -0.935241 0.353628 0.016497
-256.981988 96.843737 3.779066 155.000000 -0.935241 0.353628 0.016497
-257.009569 96.752609 3.770036 155.000000 -0.935241 0.353628 0.016497
-257.052857 96.654424 3.744490 155.000000 -0.935241 0.353628 0.016497
-257.097131 96.549577 3.728257 155.000000 -0.935241 0.353628 0.016497
-257.129573 96.458719 3.708007 155.000000 -0.935241 0.353628 0.016497
-257.160474 96.376049 3.675030 155.000000 -0.935241 0.353628 0.016497
-257.214304 96.260986 3.661280 155.000000 -0.935241 0.353628 0.016497
-256.514427 98.078429 4.145788 155.000000 -0.935241 0.353628 0.016497
-256.533599 97.991540 4.117559 155.000000 -0.935241 0.353628 0.016497
-256.574323 97.878234 4.119319 155.000000 -0.935241 0.353628 0.016497
-256.613390 97.793888 4.078022 155.000000 -0.935241 0.353628 0.016497
-256.659964 97.707661 4.078900 155.000000 -0.935241 0.353628 0.016497
-256.693267 97.608877 4.056694 155.000000 -0.935241 0.353628 0.016497
-256.731760 97.503605 4.020513 155.000000 -0.935241 0.353628 0.016497
-256.754816 97.407151 4.036926 155.000000 -0.935241 0.353628 0.016497
-256.817209 97.308078 3.986165 155.000000 -0.935241 0.353628 0.016497
-256.861232 97.211611 3.966936 155.000000 -0.935241 0.353628 0.016497
-256.897685 97.122211 3.958071 155.000000 -0.935241 0.353628 0.016497
-256.913981 97.033792 3.947705 155.000000 -0.935241 0.353628 0.016497
-256.951540 96.916119 3.903119 155.000000 -0.935241 0.353628 0.016497
-256.969554 96.822445 3.916719 155.000000 -0.935241 0.353628 0.016497
-257.023731 96.736746 3.867754 155.000000 -0.935241 0.353628 0.016497
-257.060662 96.641622 3.883037 155.000000 -0.935241 0.353628 0.016497
-257.097323 96.533372 3.816564 155.000000 -0.935241 0.353628 0.016497
-257.130184 96.458962 3.806742 155.000000 -0.935241 0.353628 0.016497
-257.166814 96.337712 3.789408 155.000000 -0.935241 0.353628 0.016497
-257.191197 96.260149 3.783093 155.000000 -0.935241 0.353628 0.016497
-256.493593 98.056391 4.248802 155.000000 -0.935241 0.353628 0.016497
-256.541135 97.952558 4.237948 155.000000 -0.935241 0.353628 0.016497
-256.586196 97.873385 4.207625 155.000000 -0.935241 0.353628 0.016497
-256.624526 97.785730 4.198296 155.000000 -0.935241 0.353628 0.016497
-256.648791 97.696231 4.183860 155.000000 -0.935241 0.353628 0.016497
-256.688876 97.573885 4.152095 155.000000 -0.935241 0.353628 0.016497
-256.743451 97.496153 4.131448 155.000000 -0.935241 0.353628 0.016497
-256.746983 97.380626 4.104302 155.000000 -0.935241 0.353628 0.016497
-256.791347 97.284389 4.100885 155.000000 -0.935241 0.353628 0.016497
-256.837269 97.191561 4.068884 155.000000 -0.935241 0.353628 0.016497
-256.882678 97.087049 4.065247 155.000000 -0.935241 0.353628 0.016497
-256.913878 97.023702 4.049361 155.000000 -0.935241 0.353628 0.016497
-256.949501 96.904849 4.014926 155.000000 -0.935241 0.353628 0.016497
-256.992208 96.813057 3.985462 155.000000 -0.935241 0.353628 0.016497
-257.020948 96.722426 3.989842 155.000000 -0.935241 0.353628 0.016497
-257.073522 96.590331 3.967908 155.000000 -0.935241 0.353628 0.016497
-257.099924 96.532524 3.942476 155.000000 -0.935241 0.353628 0.016497
-257.134864 96.432902 3.903530 155.000000 -0.935241 0.353628 0.016497
-257.183047 96.324339 3.919448 155.000000 -0.935241 0.353628 0.016497
-257.212549 96.214020 3.869493 155.000000 -0.935241 0.353628 0.016497
-256.531165 98.048573 4.327149 155.000000 -0.935241 0.353628 0.016497
-256.559242 97.948541 4.345133 155.000000 -0.935241 0.353628 0.016497
-256.595129 97.849832 4.291974 155.000000 -0.935241 0.353628 0.016497
-256.615409 97.744494 4.297819 155.000000 -0.935241 0.353628 0.016497
-256.659968 97.659973 4.289161 155.000000 -0.935241 0.353628 0.016497
-256.700816 97.569527 4.242540 155.000000 -0.935241 0.353628 0.016497
-256.744395 97.473976 4.235606 155.000000 -0.935241 0.353628 0.016497
-256.760076 97.363991 4.218794 155.000000 -0.935241 0.353628 0.016497
-256.803402 97.263486 4.194408 155.000000 -0.935241 0.353628 0.016497
-256.835466 97.174158 4.183229 155.000000 -0.935241 0.353628 0.016497
-256.893128 97.076037 4.173538 155.000000 -0.935241 0.353628 0.016497
-256.926730 96.986296 4.155604 155.000000 -0.935241 0.353628 0.016497
-256.951901 96.881715 4.103626 155.000000 -0.935241 0.353628 0.016497
-256.986981 96.783140 4.105389 155.000000 -0.935241 0.353628 0.016497
-257.021110 96.712696 4.097161 155.000000 -0.935241 0.353628 0.016497
-257.062998 96.593599 4.060574 155.000000 -0.935241 0.353628 0.016497
-257.098037 96.501540 4.048036 155.000000 -0.935241 0.353628 0.016497
-257.155718 96.412461 4.028336 155.000000 -0.935241 0.353628 0.016497
-257.149204 96.319553 3.986598 155.000000 -0.935241 0.353628 0.016497
-257.210509 96.206704 3.980803 155.000000 -0.935241 0.353628 0.016497
-256.534900 98.016729 4.448048 155.000000 -0.935241 0.353628 0.016497
-256.561697 97.951276 4.443392 155.000000 -0.935241 0.353628 0.016497
-256.602502 97.832998 4.416754 155.000000 -0.935241 0.353628 0.016497
-256.620114 97.712337 4.396317 155.000000 -0.935241 0.353628 0.016497
-256.647571 97.649402 4.374845 155.000000 -0.935241 0.353628 0.016497
-256.711181 97.543184 4.373317 155.000000 -0.935241 0.353628 0.016497
-256.752958 97.478085 4.337111 155.000000 -0.935241 0.353628 0.016497
-256.790665 97.357915 4.316343 155.000000 -0.935241 0.353628 0.016497
-256.827281 97.271917 4.304012 155.000000 -0.935241 0.353628 0.016497
-256.839113 97.156871 4.296824 155.000000 -0.935241 0.353628 0.016497
-256.881916 97.069499 4.270711 155.000000 -0.935241 0.353628 0.016497
-256.938502 96.962391 4.228874 155.000000 -0.935241 0.353628 0.016497
-256.969183 96.898026 4.221895 155.000000 -0.935241 0.353628 0.016497
-257.015459 96.783043 4.223700 155.000000 -0.935241 0.353628 0.016497
-257.034899 96.679302 4.183340 155.000000 -0.935241 0.353628 0.016497
-257.079462 96.582955 4.176262 155.000000 -0.935241 0.353628 0.016497
-257.108305 96.503627 4.153753 155.000000 -0.935241 0.353628 0.016497
-257.147408 96.368795 4.104005 155.000000 -0.935241 0.353628 0.016497
-257.184716 96.299808 4.106134 155.000000 -0.935241 0.353628 0.016497
-257.211231 96.201351 4.077374 155.000000 -0.935241 0.353628 0.016497
-256.524720 98.008208 4.556527 155.000000 -0.935241 0.353628 0.016497
-256.562292 97.888510 4.546369 155.000000 -0.935241 0.353628 0.016497
-256.590075 97.823046 4.527910 155.000000 -0.935241 0.353628 0.016497
-256.633616 97.734602 4.511956 155.000000 -0.935241 0.353628 0.016497
-256.664436 97.633722 4.484326 155.000000 -0.935241 0.353628 0.016497
-256.712033 97.523551 4.479348 155.000000 -0.935241 0.353628 0.016497
-256.754631 97.438509 4.448554 155.000000 -0.935241 0.353628 0.016497
-256.795603 97.353501 4.430994 155.000000 -0.935241 0.353628 0.016497
-256.840480 97.218336 4.418013 155.000000 -0.935241 0.353628 0.016497
-256.855864 97.147445 4.390069 155.000000 -0.935241 0.353628 0.016497
-256.894070 97.057430 4.352760 155.000000 -0.935241 0.353628 0.016497
-256.917233 96.948217 4.348287 155.000000 -0.935241 0.353628 0.016497
-256.975006 96.847205 4.330025 155.000000 -0.935241 0.353628 0.016497
-257.017893 96.744072 4.299819 155.000000 -0.935241 0.353628 0.016497
-257.045027 96.654175 4.304758 155.000000 -0.935241 0.353628 0.016497
-257.069205 96.580831 4.270031 155.000000 -0.935241 0.353628 0.016497
-257.097643 96.443907 4.250610 155.000000 -0.935241 0.353628 0.016497
-257.160811 96.358126 4.242501 155.000000 -0.935241 0.353628 0.016497
-257.187097 96.278130 4.220278 155.000000 -0.935241 0.353628 0.016497
-257.228150 96.171518 4.188300 155.000000 -0.935241 0.353628 0.016497
-256.554337 98.006969 4.650493 155.000000 -0.935241 0.353628 0.016497
-256.577795 97.899781 4.638275 155.000000 -0.935241 0.353628 0.016497
-256.603948 97.791249 4.645220 155.000000 -0.935241 0.353628 0.016497
-256.637774 97.717079 4.620425 155.000000 -0.935241 0.353628 0.016497
-256.673549 97.603634 4.595220 155.000000 -0.935241 0.353628 0.016497
-256.708662 97.510508 4.555565 155.000000 -0.935241 0.353628 0.016497
-256.775413 97.407915 4.537327 155.000000 -0.935241 0.353628 0.016497
-256.794849 97.314361 4.532400 155.000000 -0.935241 0.353628 0.016497
-256.822376 97.213391 4.499343 155.000000 -0.935241 0.353628 0.016497
-256.878049 97.131640 4.502583 155.000000 -0.935241 0.353628 0.016497
-256.916183 97.029407 4.475913 155.000000 -0.935241 0.353628 0.016497
-256.935278 96.938495 4.468680 155.000000 -0.935241 0.353628 0.016497
-256.976835 96.829879 4.430780 155.000000 -0.935241 0.353628 0.016497
-257.017645 96.749039 4.420394 155.000000 -0.935241 0.353628 0.016497
-257.045459 96.648796 4.391302 155.000000 -0.935241 0.353628 0.016497
-257.100607 96.543670 4.379869 155.000000 -0.935241 0.353628 0.016497
-257.118615 96.449722 4.359640 155.000000 -0.935241 0.353628 0.016497
-257.140357 96.374825 4.332652 155.000000 -0.935241 0.353628 0.016497
-257.191964 96.241509 4.314856 155.000000 -0.935241 0.353628 0.016497
-257.244301 96.161247 4.291732 155.000000 -0.935241 0.353628 0.016497
-256.545190 97.974924 4.781478 155.000000 -0.935241 0.353628 0.016497
-256.570400 97.869080 4.747099 155.000000 -0.935241 0.353628 0.016497
-256.603167 97.794036 4.725639 155.000000 -0.935241 0.353628 0.016497
-256.639868 97.692249 4.691948 155.000000 -0.935241 0.353628 0.016497
-256.687305 97.575596 4.685303 155.000000 -0.935241 0.353628 0.016497
-256.744794 97.489474 4.662030 155.000000 -0.935241 0.353628 0.016497
-256.773268 97.386186 4.640786 155.000000 -0.935241 0.353628 0.016497
-256.792315 97.293348 4.646725 155.000000 -0.935241 0.353628 0.016497
-256.811644 97.198979 4.622383 155.000000 -0.935241 0.353628 0.016497
-256.853581 97.103039 4.606913 155.000000 -0.935241 0.353628 0.016497
-256.914647 97.004091 4.574771 155.000000 -0.935241 0.353628 0.016497
-256.936753 96.915203 4.566042 155.000000 -0.935241 0.353628 0.016497
-256.993476 96.817474 4.538102 155.000000 -0.935241 0.353628 0.016497
-256.997263 96.717967 4.508498 155.000000 -0.935241 0.353628 0.016497
-257.059751 96.642374 4.483395 155.000000 -0.935241 0.353628 0.016497
-257.076573 96.544758 4.471428 155.000000 -0.935241 0.353628 0.016497
-257.136509 96.437705 4.448374 155.000000 -0.935241 0.353628 0.016497
-257.161207 96.319702 4.427963 155.000000 -0.935241 0.353628 0.016497
-257.198106 96.240975 4.398777 155.000000 -0.935241 0.353628 0.016497
-257.238340 96.129310 4.391604 155.000000 -0.935241 0.353628 0.016497
-256.538160 97.951474 4.860002 155.000000 -0.935241 0.353628 0.016497
-256.566072 97.869072 4.878092 155.000000 -0.935241 0.353628 0.016497
-256.630134 97.762979 4.838116 155.000000 -0.935241 0.353628 0.016497
-256.644275 97.669069 4.825354 155.000000 -0.935241 0.353628 0.016497
-256.680190 97.557224 4.801263 155.000000 -0.935241 0.353628 0.016497
-256.726143 97.478075 4.788127 155.000000 -0.935241 0.353628 0.016497
-256.758558 97.368064 4.759611 155.000000 -0.935241 0.353628 0.016497
-256.807078 97.284376 4.733443 155.000000 -0.935241 0.353628 0.016497
-256.831397 97.178393 4.709596 155.000000 -0.935241 0.353628 0.016497
-256.871179 97.092367 4.705354 155.000000 -0.935241 0.353628 0.016497
-256.925019 96.978320 4.677333 155.000000 -0.935241 0.353628 0.016497
-256.943009 96.885755 4.658698 155.000000 -0.935241 0.353628 0.016497
-256.985784 96.825121 4.613548 155.000000 -0.935241 0.353628 0.016497
-257.025623 96.678756 4.595824 155.000000 -0.935241 0.353628 0.016497
-257.061334 96.608370 4.597994 155.000000 -0.935241 0.353628 0.016497
-257.079547 96.515905 4.588798 155.000000 -0.935241 0.353628 0.016497
-257.121407 96.390000 4.564366 155.000000 -0.935241 0.353628 0.016497
-257.159835 96.320145 4.520363 155.000000 -0.935241 0.353628 0.016497
-257.216284 96.210814 4.526653 155.000000 -0.935241 0.353628 0.016497
-257.221353 96.113354 4.489008 155.000000 -0.935241 0.353628 0.016497
-256.544192 97.937489 4.963074 155.000000 -0.935241 0.353628 0.016497
-256.567898 97.866548 4.958561 155.000000 -0.935241 0.353628 0.016497
-256.619744 97.742624 4.934942 155.000000 -0.935241 0.353628 0.016497
-256.658850 97.656536 4.924622 155.000000 -0.935241 0.353628 0.016497
-256.698030 97.542760 4.922471 155.000000 -0.935241 0.353628 0.016497
-256.730786 97.438235 4.886208 155.000000 -0.935241 0.353628 0.016497
-256.781913 97.338322 4.861558 155.000000 -0.935241 0.353628 0.016497
-256.815161 97.251831 4.836136 155.000000 -0.935241 0.353628 0.016497
-256.841501 97.165006 4.823483 155.000000 -0.935241 0.353628 0.016497
-256.881146 97.063799 4.801087 155.000000 -0.935241 0.353628 0.016497
-256.903749 96.967869 4.789920 155.000000 -0.935241 0.353628 0.016497
-256.961059 96.871795 4.761363 155.000000 -0.935241 0.353628 0.016497
-256.977469 96.772631 4.755788 155.000000 -0.935241 0.353628 0.016497
-257.036954 96.692568 4.732441 155.000000 -0.935241 0.353628 0.016497
-257.068989 96.589292 4.705151 155.000000 -0.935241 0.353628 0.016497
-257.109422 96.479030 4.680166 155.000000 -0.935241 0.353628 0.016497
-257.119899 96.402925 4.664252 155.000000 -0.935241 0.353628 0.016497
-257.165549 96.289817 4.645208 155.000000 -0.935241 0.353628 0.016497
-257.222976 96.196311 4.634285 155.000000 -0.935241 0.353628 0.016497
-257.265047 96.096836 4.606150 155.000000 -0.935241 0.353628 0.016497
-256.524949 97.932589 5.083502 155.000000 -0.935241 0.353628 0.016497
-256.599351 97.822818 5.051102 155.000000 -0.935241 0.353628 0.016497
-256.617412 97.723551 5.041344 155.000000 -0.935241 0.353628 0.016497
-256.667167 97.618719 5.014985 155.000000 -0.935241 0.353628 0.016497
-256.705217 97.529963 4.991993 155.000000 -0.935241 0.353628 0.016497
-256.729706 97.419161 4.984906 155.000000 -0.935241 0.353628 0.016497
-256.778688 97.345703 4.969788 155.000000 -0.935241 0.353628 0.016497
-256.803628 97.245779 4.940459 155.000000 -0.935241 0.353628 0.016497
-256.835482 97.151079 4.917245 155.000000 -0.935241 0.353628 0.016497
-256.874128 97.050312 4.902429 155.000000 -0.935241 0.353628 0.016497
-256.929866 96.965726 4.884531 155.000000 -0.935241 0.353628 0.016497
-256.972848 96.868114 4.871761 155.000000 -0.935241 0.353628 0.016497
-256.987129 96.761520 4.857319 155.000000 -0.935241 0.353628 0.016497
-257.056741 96.653416 4.807500 155.000000 -0.935241 0.353628 0.016497
-257.079041 96.568730 4.804645 155.000000 -0.935241 0.353628 0.016497
-257.126045 96.458217 4.774518 155.000000 -0.935241 0.353628 0.016497
-257.146301 96.386060 4.769640 155.000000 -0.935241 0.353628 0.016497
-257.174279 96.269959 4.756872 155.000000 -0.935241 0.353628 0.016497
-257.212976 96.176623 4.735737 155.000000 -0.935241 0.353628 0.016497
-257.265889 96.093639 4.703010 155.000000 -0.935241 0.353628 0.016497
-256.557226 97.907126 5.178053 155.000000 -0.935241 0.353628 0.016497
-256.600871 97.806494 5.147692 155.000000 -0.935241 0.353628 0.016497
-256.641969 97.708128 5.131800 155.000000 -0.935241 0.353628 0.016497
-256.682854 97.638734 5.154979 155.000000 -0.935241 0.353628 0.016497
-256.687319 97.520074 5.106332 155.000000 -0.935241 0.353628 0.016497
-256.751995 97.416240 5.086781 155.000000 -0.935241 0.353628 0.016497
-256.793608 97.301859 5.069792 155.000000 -0.935241 0.353628 0.016497
-256.823757 97.209848 5.043679 155.000000 -0.935241 0.353628 0.016497
-256.852888 97.132002 5.021482 155.000000 -0.935241 0.353628 0.016497
-256.906476 97.008874 5.007444 155.000000 -0.935241 0.353628 0.016497
-256.937095 96.930157 4.992924 155.000000 -0.935241 0.353628 0.016497
-256.977054 96.833734 4.960166 155.000000 -0.935241 0.353628 0.016497
-257.000903 96.739905 4.948544 155.000000 -0.935241 0.353628 0.016497
-257.037153 96.628618 4.952125 155.000000 -0.935241 0.353628 0.016497
-257.050013 96.548800 4.907594 155.000000 -0.935241 0.353628 0.016497
-257.105658 96.447569 4.880045 155.000000 -0.935241 0.353628 0.016497
-257.118878 96.354388 4.858947 155.000000 -0.935241 0.353628 0.016497
-257.193544 96.249053 4.865368 155.000000 -0.935241 0.353628 0.016497
-257.204687 96.174299 4.851857 155.000000 -0.935241 0.353628 0.016497
-257.255050 96.066456 4.824352 155.000000 -0.935241 0.353628 0.016497
-256.550688 97.865330 5.276781 155.000000 -0.935241 0.353628 0.016497
-256.582410 97.781572 5.289233 155.000000 -0.935241 0.353628 0.016497
-256.663654 97.683240 5.243802 155.000000 -0.935241 0.353628 0.016497
-256.660979 97.591614 5.225779 155.000000 -0.935241 0.353628 0.016497
-256.719334 97.469516 5.216964 155.000000 -0.935241 0.353628 0.016497
-256.747032 97.396111 5.200278 155.000000 -0.935241 0.353628 0.016497
-256.796816 97.298882 5.184419 155.000000 -0.935241 0.353628 0.016497
-256.829176 97.214305 5.153153 155.000000 -0.935241 0.353628 0.016497
-256.851406 97.107424 5.129937 155.000000 -0.935241 0.353628 0.016497
-256.887754 97.007953 5.122252 155.000000 -0.935241 0.353628 0.016497
-256.941981 96.898062 5.107094 155.000000 -0.935241 0.353628 0.016497
-256.960154 96.803324 5.066901 155.000000 -0.935241 0.353628 0.016497
-257.018298 96.717470 5.069279 155.000000 -0.935241 0.353628 0.016497
-257.040591 96.614519 5.041703 155.000000 -0.935241 0.353628 0.016497
-257.096086 96.534217 5.000801 155.000000 -0.935241 0.353628 0.016497
-257.105463 96.441111 4.980852 155.000000 -0.935241 0.353628 0.016497
-257.160284 96.319564 4.990283 155.000000 -0.935241 0.353628 0.016497
-257.193829 96.246992 4.969765 155.000000 -0.935241 0.353628 0.016497
-257.232561 96.136861 4.937097 155.000000 -0.935241 0.353628 0.016497
-257.268512 96.051952 4.924183 155.000000 -0.935241 0.353628 0.016497
-256.551891 97.873002 5.368073 155.000000 -0.935241 0.353628 0.016497
-256.595723 97.763890 5.365532 155.000000 -0.935241 0.353628 0.016497
-256.643126 97.681450 5.341412 155.000000 -0.935241 0.353628 0.016497
-256.685892 97.586238 5.337352 155.000000 -0.935241 0.353628 0.016497
-256.716678 97.479234 5.313955 155.000000 -0.935241 0.353628 0.016497
-256.749453 97.362498 5.287634 155.000000 -0.935241 0.353628 0.016497
-256.801652 97.275149 5.279695 155.000000 -0.935241 0.353628 0.016497
-256.825378 97.192516 5.247999 155.000000 -0.935241 0.353628 0.016497
-256.861387 97.100341 5.217164 155.000000 -0.935241 0.353628 0.016497
-256.889921 96.990909 5.203509 155.000000 -0.935241 0.353628 0.016497
-256.939168 96.903500 5.187501 155.000000 -0.935241 0.353628 0.016497
-256.992595 96.802448 5.181349 155.000000 -0.935241 0.353628 0.016497
-257.001751 96.703358 5.160375 155.000000 -0.935241 0.353628 0.016497
-257.030535 96.610556 5.136927 155.000000 -0.935241 0.353628 0.016497
-257.090245 96.519455 5.111889 155.000000 -0.935241 0.353628 0.016497
-257.129865 96.412287 5.100195 155.000000 -0.935241 0.353628 0.016497
-257.164340 96.309597 5.096809 155.000000 -0.935241 0.353628 0.016497
-257.213714 96.226203 5.052333 155.000000 -0.935241 0.353628 0.016497
-257.227536 96.111795 5.036640 155.000000 -0.935241 0.353628 0.016497
-257.261602 96.037113 5.036742 155.000000 -0.935241 0.353628 0.016497
-256.563596 97.844461 5.502904 155.000000 -0.935241 0.353628 0.016497
-256.610198 97.745277 5.487077 155.000000 -0.935241 0.353628 0.016497
-256.637471 97.635911 5.464326 155.000000 -0.935241 0.353628 0.016497
-256.688782 97.557868 5.423775 155.000000 -0.935241 0.353628 0.016497
-256.720643 97.451828 5.418176 155.000000 -0.935241 0.353628 0.016497
-256.760989 97.361092 5.396882 155.000000 -0.935241 0.353628 0.016497
-256.789786 97.268375 5.386608 155.000000 -0.935241 0.353628 0.016497
-256.816229 97.174610 5.351860 155.000000 -0.935241 0.353628 0.016497
-256.873350 97.078207 5.339319 155.000000 -0.935241 0.353628 0.016497
-256.926897 96.975131 5.304941 155.000000 -0.935241 0.353628 0.016497
-256.933635 96.871250 5.297518 155.000000 -0.935241 0.353628 0.016497
-256.988420 96.762727 5.279590 155.000000 -0.935241 0.353628 0.016497
-257.041056 96.681468 5.260084 155.000000 -0.935241 0.353628 0.016497
-257.045320 96.594977 5.261930 155.000000 -0.935241 0.353628 0.016497
-257.082363 96.497403 5.215789 155.000000 -0.935241 0.353628 0.016497
-257.142628 96.392211 5.188533 155.000000 -0.935241 0.353628 0.016497
-257.176063 96.304566 5.178394 155.000000 -0.935241 0.353628 0.016497
-257.215742 96.204767 5.164450 155.000000 -0.935241 0.353628 0.016497
-257.235692 96.110778 5.121490 155.000000 -0.935241 0.353628 0.016497
-257.270474 95.991314 5.120638 155.000000 -0.935241 0.353628 0.016497
-256.583645 97.821826 5.611264 155.000000 -0.935241 0.353628 0.016497
-256.609784 97.730395 5.573699 155.000000 -0.935241 0.353628 0.016497
-256.640452 97.622264 5.549579 155.000000 -0.935241 0.353628 0.016497
-256.674087 97.547135 5.530953 155.000000 -0.935241 0.353628 0.016497
-256.719994 97.440881 5.504308 155.000000 -0.935241 0.353628 0.016497
-256.777190 97.325503 5.517081 155.000000 -0.935241 0.353628 0.016497
-256.796025 97.240445 5.471299 155.000000 -0.935241 0.353628 0.016497
-256.837615 97.134303 5.468487 155.000000 -0.935241 0.353628 0.016497
-256.877047 97.055579 5.444429 155.000000 -0.935241 0.353628 0.016497
-256.908898 96.963776 5.430853 155.000000 -0.935241 0.353628 0.016497
-256.957498 96.869067 5.390904 155.000000 -0.935241 0.353628 0.016497
-256.978593 96.770045 5.381427 155.000000 -0.935241 0.353628 0.016497
-257.039695 96.664995 5.360838 155.000000 -0.935241 0.353628 0.016497
-257.053595 96.549902 5.346310 155.000000 -0.935241 0.353628 0.016497
-257.077765 96.453153 5.338139 155.000000 -0.935241 0.353628 0.016497
-257.117539 96.375805 5.298868 155.000000 -0.935241 0.353628 0.016497
-257.178602 96.283439 5.289730 155.000000 -0.935241 0.353628 0.016497
-257.212805 96.173380 5.253714 155.000000 -0.935241 0.353628 0.016497
-257.252568 96.109688 5.232768 155.000000 -0.935241 0.353628 0.016497
-257.269149 95.994182 5.236072 155.000000 -0.935241 0.353628 0.016497
-256.589189 97.785721 5.707497 155.000000 -0.935241 0.353628 0.016497
-256.610266 97.711047 5.684966 155.000000 -0.935241 0.353628 0.016497
-256.652765 97.604280 5.661140 155.000000 -0.935241 0.353628 0.016497
-256.688732 97.530815 5.629984 155.000000 -0.935241 0.353628 0.016497
-256.724036 97.416990 5.622796 155.000000 -0.935241 0.353628 0.016497
-256.771297 97.324507 5.607042 155.000000 -0.935241 0.353628 0.016497
-256.805429 97.212958 5.581618 155.000000 -0.935241 0.353628 0.016497
-256.848775 97.141521 5.554814 155.000000 -0.935241 0.353628 0.016497
-256.876923 97.038416 5.547824 155.000000 -0.935241 0.353628 0.016497
-256.913746 96.935856 5.515735 155.000000 -0.935241 0.353628 0.016497
-256.943424 96.833925 5.506733 155.000000 -0.935241 0.353628 0.016497
-256.990854 96.752867 5.483178 155.000000 -0.935241 0.353628 0.016497
-257.031675 96.647546 5.470043 155.000000 -0.935241 0.353628 0.016497
-257.071134 96.547063 5.444283 155.000000 -0.935241 0.353628 0.016497
-257.109610 96.464706 5.437560 155.000000 -0.935241 0.353628 0.016497
-257.142875 96.378406 5.402852 155.000000 -0.935241 0.353628 0.016497
-257.171299 96.257277 5.399617 155.000000 -0.935241 0.353628 0.016497
-257.215561 96.152790 5.374452 155.000000 -0.935241 0.353628 0.016497
-257.247977 96.066012 5.345894 155.000000 -0.935241 0.353628 0.016497
-257.303382 95.973289 5.332473 155.000000 -0.935241 0.353628 0.016497
-256.597331 97.784654 5.792191 155.000000 -0.935241 0.353628 0.016497
-256.624464 97.678367 5.776419 155.000000 -0.935241 0.353628 0.016497
-256.675060 97.584492 5.756158 155.000000 -0.935241 0.353628 0.016497
-256.701580 97.497307 5.743175 155.000000 -0.935241 0.353628 0.016497
-256.737394 97.391906 5.712902 155.000000 -0.935241 0.353628 0.016497
-256.780255 97.297369 5.715083 155.000000 -0.935241 0.353628 0.016497
-256.802325 97.209082 5.680237 155.000000 -0.935241 0.353628 0.016497
-256.842734 97.110380 5.656944 155.000000 -0.935241 0.353628 0.016497
-256.882757 97.002068 5.662372 155.000000 -0.935241 0.353628 0.016497
-256.929553 96.919259 5.642922 155.000000 -0.935241 0.353628 0.016497
-256.949502 96.837380 5.595596 155.000000 -0.935241 0.353628 0.016497
-256.992951 96.701963 5.586032 155.000000 -0.935241 0.353628 0.016497
-257.034199 96.620573 5.571911 155.000000 -0.935241 0.353628 0.016497
-257.082878 96.528695 5.540125 155.000000 -0.935241 0.353628 0.016497
-257.110418 96.445903 5.532685 155.000000 -0.935241 0.353628 0.016497
-257.153301 96.328284 5.524953 155.000000 -0.935241 0.353628 0.016497
-257.173024 96.233209 5.467468 155.000000 -0.935241 0.353628 0.016497
-257.218047 96.139045 5.467233 155.000000 -0.935241 0.353628 0.016497
-257.263607 96.055902 5.474605 155.000000 -0.935241 0.353628 0.016497
-257.285303 95.954597 5.433701 155.000000 -0.935241 0.353628 0.016497
-114.697424 245.538155 -69.098942 156.000000 -0.414192 0.875198 -0.249948
-114.683708 245.494505 -69.204043 156.000000 -0.414192 0.875198 -0.249948
-114.719025 245.463016 -69.304091 156.000000 -0.414192 0.875198 -0.249948
-114.709899 245.450634 -69.405698 156.000000 -0.414192 0.875198 -0.249948
-114.727470 245.399717 -69.505119 156.000000 -0.414192 0.875198 -0.249948
-114.732777 245.375048 -69.612700 156.000000 -0.414192 0.875198 -0.249948
-114.758555 245.345669 -69.697004 156.000000 -0.414192 0.875198 -0.249948
-114.728946 245.308458 -69.796516 156.000000 -0.414192 0.875198 -0.249948
-114.753811 245.273074 -69.929519 156.000000 -0.414192 0.875198 -0.249948
-114.748705 245.252614 -70.036422 156.000000 -0.414192 0.875198 -0.249948
-114.758051 245.227259 -70.113855 156.000000 -0.414192 0.875198 -0.249948
-114.786886 245.196847 -70.212602 156.000000 -0.414192 0.875198 -0.249948
-114.781486 245.151176 -70.317091 156.000000 -0.414192 0.875198 -0.249948
-114.783020 245.126267 -70.434735 156.000000 -0.414192 0.875198 -0.249948
-114.785633 245.076011 -70.520593 156.000000 -0.414192 0.875198 -0.249948
-114.801168 245.054154 -70.640646 156.000000 -0.414192 0.875198 -0.249948
-114.817847 245.031133 -70.714482 156.000000 -0.414192 0.875198 -0.249948
-114.824200 245.012369 -70.813549 156.000000 -0.414192 0.875198 -0.249948
-114.828306 244.959174 -70.914879 156.000000 -0.414192 0.875198 -0.249948
-114.817922 244.932706 -71.006384 156.000000 -0.414192 0.875198 -0.249948
-114.811900 245.497690 -69.085227 156.000000 -0.414192 0.875198 -0.249948
-114.808867 245.469842 -69.188614 156.000000 -0.414192 0.875198 -0.249948
-114.839545 245.422011 -69.297610 156.000000 -0.414192 0.875198 -0.249948
-114.818297 245.393871 -69.378585 156.000000 -0.414192 0.875198 -0.249948
-114.834266 245.362664 -69.482292 156.000000 -0.414192 0.875198 -0.249948
-114.833513 245.348788 -69.596188 156.000000 -0.414192 0.875198 -0.249948
-114.850736 245.298412 -69.703149 156.000000 -0.414192 0.875198 -0.249948
-114.836694 245.251514 -69.794442 156.000000 -0.414192 0.875198 -0.249948
-114.865804 245.246995 -69.893657 156.000000 -0.414192 0.875198 -0.249948
-114.862362 245.209923 -69.957203 156.000000 -0.414192 0.875198 -0.249948
-114.873385 245.183478 -70.090034 156.000000 -0.414192 0.875198 -0.249948
-114.880921 245.147877 -70.179456 156.000000 -0.414192 0.875198 -0.249948
-114.877637 245.117304 -70.297386 156.000000 -0.414192 0.875198 -0.249948
-114.883558 245.084274 -70.388669 156.000000 -0.414192 0.875198 -0.249948
-114.894095 245.040464 -70.497729 156.000000 -0.414192 0.875198 -0.249948
-114.876803 245.026025 -70.605271 156.000000 -0.414192 0.875198 -0.249948
-114.902899 244.985426 -70.682651 156.000000 -0.414192 0.875198 -0.249948
-114.898587 244.956736 -70.785176 156.000000 -0.414192 0.875198 -0.249948
-114.914947 244.929934 -70.918665 156.000000 -0.414192 0.875198 -0.249948
-114.907840 244.897740 -71.015838 156.000000 -0.414192 0.875198 -0.249948
-114.903847 245.456736 -69.081510 156.000000 -0.414192 0.875198 -0.249948
-114.910347 245.422835 -69.160181 156.000000 -0.414192 0.875198 -0.249948
-114.919765 245.366055 -69.279804 156.000000 -0.414192 0.875198 -0.249948
-114.926900 245.373819 -69.366602 156.000000 -0.414192 0.875198 -0.249948
-114.902913 245.325084 -69.479938 156.000000 -0.414192 0.875198 -0.249948
-114.941847 245.285178 -69.572783 156.000000 -0.414192 0.875198 -0.249948
-114.939577 245.262150 -69.659239 156.000000 -0.414192 0.875198 -0.249948
-114.947188 245.221818 -69.779125 156.000000 -0.414192 0.875198 -0.249948
-114.955903 245.200173 -69.875706 156.000000 -0.414192 0.875198 -0.249948
-114.953008 245.168775 -69.969682 156.000000 -0.414192 0.875198 -0.249948
-114.958971 245.130816 -70.079988 156.000000 -0.414192 0.875198 -0.249948
-114.980153 245.111373 -70.195455 156.000000 -0.414192 0.875198 -0.249948
-114.964837 245.056556 -70.278501 156.000000 -0.414192 0.875198 -0.249948
-114.967505 245.051338 -70.378515 156.000000 -0.414192 0.875198 -0.249948
-115.000210 245.025970 -70.478121 156.000000 -0.414192 0.875198 -0.249948
-114.999743 244.979896 -70.579346 156.000000 -0.414192 0.875198 -0.249948
-114.997693 244.943195 -70.675440 156.000000 -0.414192 0.875198 -0.249948
-115.000170 244.883581 -70.777390 156.000000 -0.414192 0.875198 -0.249948
-115.009790 244.893814 -70.880964 156.000000 -0.414192 0.875198 -0.249948
-115.014544 244.848932 -70.968924 156.000000 -0.414192 0.875198 -0.249948
-114.991588 245.429478 -69.074589 156.000000 -0.414192 0.875198 -0.249948
-115.010258 245.390062 -69.161190 156.000000 -0.414192 0.875198 -0.249948
-115.011314 245.347919 -69.265731 156.000000 -0.414192 0.875198 -0.249948
-115.015195 245.307179 -69.348796 156.000000 -0.414192 0.875198 -0.249948
-115.004590 245.311831 -69.454189 156.000000 -0.414192 0.875198 -0.249948
-115.016507 245.253103 -69.554036 156.000000 -0.414192 0.875198 -0.249948
-115.022706 245.209040 -69.663194 156.000000 -0.414192 0.875198 -0.249948
-115.042259 245.197508 -69.760343 156.000000 -0.414192 0.875198 -0.249948
-115.043675 245.167646 -69.856025 156.000000 -0.414192 0.875198 -0.249948
-115.039667 245.120836 -69.939935 156.000000 -0.414192 0.875198 -0.249948
