-103.982526 -123.160233 149.729602 44.000000 -0.475819 -0.560229 0.678041
-103.998687 -123.080950 149.802574 44.000000 -0.475819 -0.560229 0.678041
-104.035714 -122.996975 149.841824 44.000000 -0.475819 -0.560229 0.678041
-104.044906 -122.881946 149.904089 44.000000 -0.475819 -0.560229 0.678041
-104.099018 -122.816750 149.957600 44.000000 -0.475819 -0.560229 0.678041
-104.126991 -122.714120 150.009878 44.000000 -0.475819 -0.560229 0.678041
-104.147913 -122.631409 150.051129 44.000000 -0.475819 -0.560229 0.678041
-104.160684 -122.547340 150.091123 44.000000 -0.475819 -0.560229 0.678041
-104.219415 -122.448758 150.141196 44.000000 -0.475819 -0.560229 0.678041
-103.745967 -124.110728 149.114206 44.000000 -0.475819 -0.560229 0.678041
-103.776773 -124.020211 149.166828 44.000000 -0.475819 -0.560229 0.678041
-103.800935 -123.942336 149.221541 44.000000 -0.475819 -0.560229 0.678041
-103.828610 -123.821704 149.272544 44.000000 -0.475819 -0.560229 0.678041
-103.855213 -123.760114 149.344919 44.000000 -0.475819 -0.560229 0.678041
-103.883667 -123.678951 149.372197 44.000000 -0.475819 -0.560229 0.678041
-103.924633 -123.595905 149.419516 44.000000 -0.475819 -0.560229 0.678041
-103.951808 -123.495241 149.477924 44.000000 -0.475819 -0.560229 0.678041
-104.002747 -123.422905 149.532281 44.000000 -0.475819 -0.560229 0.678041
-104.004269 -123.331712 149.571485 44.000000 -0.475819 -0.560229 0.678041
-104.030619 -123.251176 149.631543 44.000000 -0.475819 -0.560229 0.678041
-104.081761 -123.152468 149.674518 44.000000 -0.475819 -0.560229 0.678041
-104.095809 -123.056512 149.725355 44.000000 -0.475819 -0.560229 0.678041
-104.126493 -122.977009 149.794613 44.000000 -0.475819 -0.560229 0.678041
-104.153149 -122.869681 149.816466 44.000000 -0.475819 -0.560229 0.678041
-104.193369 -122.799322 149.889542 44.000000 -0.475819 -0.560229 0.678041
-104.218113 -122.736875 149.930255 44.000000 -0.475819 -0.560229 0.678041
-104.232479 -122.631566 149.993415 44.000000 -0.475819 -0.560229 0.678041
-104.287846 -122.550922 150.034029 44.000000 -0.475819 -0.560229 0.678041
-104.303140 -122.457730 150.108540 44.000000 -0.475819 -0.560229 0.678041
-103.833656 -124.098722 149.055317 44.000000 -0.475819 -0.560229 0.678041
-103.862638 -124.009834 149.109710 44.000000 -0.475819 -0.560229 0.678041
-103.905809 -123.934454 149.156129 44.000000 -0.475819 -0.560229 0.678041
-103.928109 -123.831446 149.220023 44.000000 -0.475819 -0.560229 0.678041
-103.941790 -123.777382 149.275177 44.000000 -0.475819 -0.560229 0.678041
-103.979491 -123.680664 149.313958 44.000000 -0.475819 -0.560229 0.678041
-104.017845 -123.581281 149.342718 44.000000 -0.475819 -0.560229 0.678041
-104.024694 -123.473070 149.442276 44.000000 -0.475819 -0.560229 0.678041
-104.078084 -123.407898 149.459665 44.000000 -0.475819 -0.560229 0.678041
-104.113158 -123.335043 149.515549 44.000000 -0.475819 -0.560229 0.678041
-104.131475 -123.257780 149.560956 44.000000 -0.475819 -0.560229 0.678041
-104.148595 -123.166129 149.615662 44.000000 -0.475819 -0.560229 0.678041
-104.184492 -123.066118 149.671236 44.000000 -0.475819 -0.560229 0.678041
-104.213174 -122.974443 149.727027 44.000000 -0.475819 -0.560229 0.678041
-104.250394 -122.886981 149.758433 44.000000 -0.475819 -0.560229 0.678041
-104.272463 -122.814060 149.820852 44.000000 -0.475819 -0.560229 0.678041
-104.296853 -122.716673 149.883301 44.000000 -0.475819 -0.560229 0.678041
-104.317625 -122.626282 149.924717 44.000000 -0.475819 -0.560229 0.678041
-104.366858 -122.551309 149.979709 44.000000 -0.475819 -0.560229 0.678041
-104.387951 -122.455696 150.039577 44.000000 -0.475819 -0.560229 0.678041
-103.907015 -124.114110 149.005743 44.000000 -0.475819 -0.560229 0.678041
-103.943178 -124.024154 149.033621 44.000000 -0.475819 -0.560229 0.678041
-103.967075 -123.936944 149.109204 44.000000 -0.475819 -0.560229 0.678041
-104.011763 -123.857805 149.129799 44.000000 -0.475819 -0.560229 0.678041
-104.033118 -123.735776 149.207921 44.000000 -0.475819 -0.560229 0.678041
-104.066268 -123.666083 149.255198 44.000000 -0.475819 -0.560229 0.678041
-104.087663 -123.568820 149.324193 44.000000 -0.475819 -0.560229 0.678041
-104.123999 -123.494020 149.361477 44.000000 -0.475819 -0.560229 0.678041
-104.138541 -123.387311 149.386534 44.000000 -0.475819 -0.560229 0.678041
-104.188172 -123.321035 149.469222 44.000000 -0.475819 -0.560229 0.678041
-104.216755 -123.216739 149.502135 44.000000 -0.475819 -0.560229 0.678041
-104.226100 -123.150564 149.574392 44.000000 -0.475819 -0.560229 0.678041
-104.271091 -123.073315 149.597564 44.000000 -0.475819 -0.560229 0.678041
-104.298965 -122.951720 149.672332 44.000000 -0.475819 -0.560229 0.678041
-104.325731 -122.862564 149.714182 44.000000 -0.475819 -0.560229 0.678041
-104.351233 -122.794326 149.767614 44.000000 -0.475819 -0.560229 0.678041
-104.385993 -122.695870 149.824369 44.000000 -0.475819 -0.560229 0.678041
-104.418785 -122.640080 149.864103 44.000000 -0.475819 -0.560229 0.678041
-104.451497 -122.533733 149.924457 44.000000 -0.475819 -0.560229 0.678041
-104.488524 -122.451275 149.997129 44.000000 -0.475819 -0.560229 0.678041
-104.024815 -124.102512 148.939335 44.000000 -0.475819 -0.560229 0.678041
-104.022632 -124.017875 149.000419 44.000000 -0.475819 -0.560229 0.678041
-104.062635 -123.906022 149.065051 44.000000 -0.475819 -0.560229 0.678041
-104.116555 -123.857827 149.095974 44.000000 -0.475819 -0.560229 0.678041
-104.104124 -123.743622 149.158086 44.000000 -0.475819 -0.560229 0.678041
-104.153667 -123.651929 149.211406 44.000000 -0.475819 -0.560229 0.678041
-104.177461 -123.577278 149.258559 44.000000 -0.475819 -0.560229 0.678041
-104.223351 -123.492615 149.295431 44.000000 -0.475819 -0.560229 0.678041
-104.244396 -123.402710 149.374562 44.000000 -0.475819 -0.560229 0.678041
-104.262372 -123.312519 149.403691 44.000000 -0.475819 -0.560229 0.678041
-104.290310 -123.218487 149.461769 44.000000 -0.475819 -0.560229 0.678041
-104.320180 -123.151849 149.498658 44.000000 -0.475819 -0.560229 0.678041
-104.364075 -123.070441 149.565081 44.000000 -0.475819 -0.560229 0.678041
-104.380049 -122.964857 149.611485 44.000000 -0.475819 -0.560229 0.678041
-104.421093 -122.881911 149.657841 44.000000 -0.475819 -0.560229 0.678041
-104.445789 -122.808294 149.708249 44.000000 -0.475819 -0.560229 0.678041
-104.488547 -122.717205 149.778111 44.000000 -0.475819 -0.560229 0.678041
-104.504326 -122.596698 149.844198 44.000000 -0.475819 -0.560229 0.678041
-104.546203 -122.538326 149.865961 44.000000 -0.475819 -0.560229 0.678041
-104.566629 -122.460676 149.926774 44.000000 -0.475819 -0.560229 0.678041
-104.096471 -124.084877 148.886715 44.000000 -0.475819 -0.560229 0.678041
-104.124588 -124.025176 148.934486 44.000000 -0.475819 -0.560229 0.678041
-104.157375 -123.910335 148.987083 44.000000 -0.475819 -0.560229 0.678041
-104.202641 -123.834281 149.047481 44.000000 -0.475819 -0.560229 0.678041
-104.205152 -123.745584 149.082595 44.000000 -0.475819 -0.560229 0.678041
-104.229772 -123.674315 149.137316 44.000000 -0.475819 -0.560229 0.678041
-104.272758 -123.576546 149.208151 44.000000 -0.475819 -0.560229 0.678041
-104.307140 -123.471923 149.249604 44.000000 -0.475819 -0.560229 0.678041
-104.312615 -123.405652 149.307295 44.000000 -0.475819 -0.560229 0.678041
-104.361130 -123.297130 149.351904 44.000000 -0.475819 -0.560229 0.678041
-104.401281 -123.213116 149.415358 44.000000 -0.475819 -0.560229 0.678041
-104.422790 -123.128573 149.454760 44.000000 -0.475819 -0.560229 0.678041
-104.448020 -123.045800 149.508403 44.000000 -0.475819 -0.560229 0.678041
-104.449016 -122.968448 149.557270 44.000000 -0.475819 -0.560229 0.678041
-104.503670 -122.863226 149.602363 44.000000 -0.475819 -0.560229 0.678041
-104.533602 -122.785333 149.647190 44.000000 -0.475819 -0.560229 0.678041
-104.543983 -122.704994 149.706007 44.000000 -0.475819 -0.560229 0.678041
-104.578352 -122.607291 149.765644 44.000000 -0.475819 -0.560229 0.678041
-104.631869 -122.536114 149.825736 44.000000 -0.475819 -0.560229 0.678041
-104.642977 -122.448285 149.873660 44.000000 -0.475819 -0.560229 0.678041
-104.164122 -124.097882 148.831154 44.000000 -0.475819 -0.560229 0.678041
-104.196041 -124.011727 148.885099 44.000000 -0.475819 -0.560229 0.678041
-104.239903 -123.933322 148.941001 44.000000 -0.475819 -0.560229 0.678041
-104.278627 -123.836921 148.978106 44.000000 -0.475819 -0.560229 0.678041
-104.297977 -123.741425 149.032175 44.000000 -0.475819 -0.560229 0.678041
-104.335809 -123.655001 149.069965 44.000000 -0.475819 -0.560229 0.678041
-104.369527 -123.570916 149.135851 44.000000 -0.475819 -0.560229 0.678041
-104.378379 -123.495147 149.188303 44.000000 -0.475819 -0.560229 0.678041
-104.411671 -123.409507 149.245212 44.000000 -0.475819 -0.560229 0.678041
-104.411164 -123.308881 149.296043 44.000000 -0.475819 -0.560229 0.678041
-104.470114 -123.231052 149.345546 44.000000 -0.475819 -0.560229 0.678041
-104.496557 -123.141284 149.377158 44.000000 -0.475819 -0.560229 0.678041
-104.539990 -123.036079 149.427326 44.000000 -0.475819 -0.560229 0.678041
-104.555895 -122.964325 149.476149 44.000000 -0.475819 -0.560229 0.678041
-104.594885 -122.867874 149.577609 44.000000 -0.475819 -0.560229 0.678041
-104.636787 -122.791721 149.614329 44.000000 -0.475819 -0.560229 0.678041
-104.639811 -122.691306 149.650900 44.000000 -0.475819 -0.560229 0.678041
-104.680266 -122.607015 149.704024 44.000000 -0.475819 -0.560229 0.678041
-104.723652 -122.527132 149.747965 44.000000 -0.475819 -0.560229 0.678041
-104.737190 -122.429188 149.827259 44.000000 -0.475819 -0.560229 0.678041
-104.269789 -124.084631 148.771775 44.000000 -0.475819 -0.560229 0.678041
-104.292533 -123.998691 148.813155 44.000000 -0.475819 -0.560229 0.678041
-104.341933 -123.899455 148.860772 44.000000 -0.475819 -0.560229 0.678041
-104.343884 -123.808256 148.902938 44.000000 -0.475819 -0.560229 0.678041
-104.395773 -123.735562 148.961977 44.000000 -0.475819 -0.560229 0.678041
-104.433004 -123.651171 149.001616 44.000000 -0.475819 -0.560229 0.678041
-104.416629 -123.564247 149.076358 44.000000 -0.475819 -0.560229 0.678041
-104.474351 -123.463087 149.147747 44.000000 -0.475819 -0.560229 0.678041
-104.491031 -123.388713 149.185113 44.000000 -0.475819 -0.560229 0.678041
-104.542186 -123.309378 149.221528 44.000000 -0.475819 -0.560229 0.678041
-104.564502 -123.210690 149.297620 44.000000 -0.475819 -0.560229 0.678041
-104.607282 -123.109802 149.334996 44.000000 -0.475819 -0.560229 0.678041
-104.631165 -123.042660 149.372658 44.000000 -0.475819 -0.560229 0.678041
-104.648806 -122.962444 149.430136 44.000000 -0.475819 -0.560229 0.678041
-104.689140 -122.866577 149.492501 44.000000 -0.475819 -0.560229 0.678041
-104.713308 -122.801691 149.540161 44.000000 -0.475819 -0.560229 0.678041
-104.747234 -122.677361 149.586593 44.000000 -0.475819 -0.560229 0.678041
-104.767368 -122.597454 149.636527 44.000000 -0.475819 -0.560229 0.678041
-104.801663 -122.495216 149.696618 44.000000 -0.475819 -0.560229 0.678041
-104.829213 -122.416011 149.741076 44.000000 -0.475819 -0.560229 0.678041
-104.364899 -124.089625 148.706109 44.000000 -0.475819 -0.560229 0.678041
-104.382689 -123.983216 148.726207 44.000000 -0.475819 -0.560229 0.678041
-104.416690 -123.907332 148.810930 44.000000 -0.475819 -0.560229 0.678041
-104.456804 -123.812154 148.859041 44.000000 -0.475819 -0.560229 0.678041
-104.463125 -123.734250 148.906646 44.000000 -0.475819 -0.560229 0.678041
-104.503196 -123.645988 148.965638 44.000000 -0.475819 -0.560229 0.678041
-104.538075 -123.554486 149.016172 44.000000 -0.475819 -0.560229 0.678041
-104.559485 -123.484586 149.089751 44.000000 -0.475819 -0.560229 0.678041
-104.596389 -123.384125 149.135970 44.000000 -0.475819 -0.560229 0.678041
-104.598513 -123.295885 149.176119 44.000000 -0.475819 -0.560229 0.678041
-104.652329 -123.210999 149.219821 44.000000 -0.475819 -0.560229 0.678041
-104.668804 -123.120164 149.289197 44.000000 -0.475819 -0.560229 0.678041
-104.713015 -123.014308 149.328207 44.000000 -0.475819 -0.560229 0.678041
-104.734282 -122.947205 149.379422 44.000000 -0.475819 -0.560229 0.678041
-104.765755 -122.863433 149.424664 44.000000 -0.475819 -0.560229 0.678041
-104.784402 -122.790149 149.477821 44.000000 -0.475819 -0.560229 0.678041
-104.824963 -122.686244 149.532506 44.000000 -0.475819 -0.560229 0.678041
-104.865674 -122.598227 149.577210 44.000000 -0.475819 -0.560229 0.678041
-104.882123 -122.499561 149.621718 44.000000 -0.475819 -0.560229 0.678041
-104.899711 -122.425251 149.688355 44.000000 -0.475819 -0.560229 0.678041
-104.466075 -124.067869 148.647415 44.000000 -0.475819 -0.560229 0.678041
-104.468060 -123.965407 148.682883 44.000000 -0.475819 -0.560229 0.678041
-104.515092 -123.874461 148.759035 44.000000 -0.475819 -0.560229 0.678041
-104.530641 -123.810554 148.789144 44.000000 -0.475819 -0.560229 0.678041
-104.565306 -123.737022 148.865986 44.000000 -0.475819 -0.560229 0.678041
-104.575620 -123.648495 148.914794 44.000000 -0.475819 -0.560229 0.678041
-104.625570 -123.556796 148.962414 44.000000 -0.475819 -0.560229 0.678041
-104.667621 -123.463842 149.003531 44.000000 -0.475819 -0.560229 0.678041
-104.678976 -123.404397 149.075143 44.000000 -0.475819 -0.560229 0.678041
-104.698956 -123.303759 149.103107 44.000000 -0.475819 -0.560229 0.678041
-104.751452 -123.224709 149.159392 44.000000 -0.475819 -0.560229 0.678041
-104.767700 -123.121887 149.202538 44.000000 -0.475819 -0.560229 0.678041
-104.809957 -123.025139 149.267718 44.000000 -0.475819 -0.560229 0.678041
-104.833934 -122.943981 149.320482 44.000000 -0.475819 -0.560229 0.678041
-104.857483 -122.847200 149.360298 44.000000 -0.475819 -0.560229 0.678041
-104.888840 -122.775751 149.425175 44.000000 -0.475819 -0.560229 0.678041
-104.913704 -122.688499 149.481844 44.000000 -0.475819 -0.560229 0.678041
-104.929916 -122.600337 149.530392 44.000000 -0.475819 -0.560229 0.678041
-104.977385 -122.511547 149.587218 44.000000 -0.475819 -0.560229 0.678041
-105.004280 -122.423664 149.629239 44.000000 -0.475819 -0.560229 0.678041
-104.543683 -124.072166 148.597654 44.000000 -0.475819 -0.560229 0.678041
-104.561197 -123.973892 148.640462 44.000000 -0.475819 -0.560229 0.678041
-104.589156 -123.899499 148.703579 44.000000 -0.475819 -0.560229 0.678041
-104.607227 -123.810471 148.752300 44.000000 -0.475819 -0.560229 0.678041
-104.647025 -123.729455 148.807355 44.000000 -0.475819 -0.560229 0.678041
-104.693829 -123.625486 148.854356 44.000000 -0.475819 -0.560229 0.678041
-104.717150 -123.544840 148.900146 44.000000 -0.475819 -0.560229 0.678041
-104.731622 -123.472719 148.962909 44.000000 -0.475819 -0.560229 0.678041
-104.768398 -123.367309 149.019862 44.000000 -0.475819 -0.560229 0.678041
-104.792045 -123.301291 149.066454 44.000000 -0.475819 -0.560229 0.678041
-104.823430 -123.202269 149.096548 44.000000 -0.475819 -0.560229 0.678041
-104.847874 -123.111045 149.174951 44.000000 -0.475819 -0.560229 0.678041
-104.867804 -123.014954 149.219116 44.000000 -0.475819 -0.560229 0.678041
-104.928525 -122.933572 149.254319 44.000000 -0.475819 -0.560229 0.678041
-104.933161 -122.852844 149.311169 44.000000 -0.475819 -0.560229 0.678041
-104.986473 -122.767213 149.346116 44.000000 -0.475819 -0.560229 0.678041
-104.999237 -122.682948 149.405593 44.000000 -0.475819 -0.560229 0.678041
-105.032972 -122.586011 149.467497 44.000000 -0.475819 -0.560229 0.678041
-105.082190 -122.511434 149.521278 44.000000 -0.475819 -0.560229 0.678041
-105.101297 -122.440858 149.576710 44.000000 -0.475819 -0.560229 0.678041
-104.617803 -124.068544 148.543925 44.000000 -0.475819 -0.560229 0.678041
-104.671656 -123.973477 148.578637 44.000000 -0.475819 -0.560229 0.678041
-104.689892 -123.902390 148.629944 44.000000 -0.475819 -0.560229 0.678041
-104.712313 -123.807025 148.690383 44.000000 -0.475819 -0.560229 0.678041
-104.731404 -123.714364 148.745777 44.000000 -0.475819 -0.560229 0.678041
-104.777229 -123.632840 148.775777 44.000000 -0.475819 -0.560229 0.678041
-104.808242 -123.542668 148.836362 44.000000 -0.475819 -0.560229 0.678041
-104.826701 -123.442087 148.892604 44.000000 -0.475819 -0.560229 0.678041
-104.841828 -123.363776 148.953333 44.000000 -0.475819 -0.560229 0.678041
-104.887638 -123.260010 149.005461 44.000000 -0.475819 -0.560229 0.678041
-104.919818 -123.194037 149.073623 44.000000 -0.475819 -0.560229 0.678041
-104.949394 -123.109678 149.100381 44.000000 -0.475819 -0.560229 0.678041
-104.978264 -123.020653 149.150006 44.000000 -0.475819 -0.560229 0.678041
-105.009474 -122.935904 149.201941 44.000000 -0.475819 -0.560229 0.678041
-105.032168 -122.852131 149.268156 44.000000 -0.475819 -0.560229 0.678041
-105.060491 -122.785811 149.327185 44.000000 -0.475819 -0.560229 0.678041
-105.086658 -122.680494 149.386216 44.000000 -0.475819 -0.560229 0.678041
-105.121826 -122.590409 149.405517 44.000000 -0.475819 -0.560229 0.678041
-105.146606 -122.502162 149.463712 44.000000 -0.475819 -0.560229 0.678041
-105.184666 -122.388095 149.520261 44.000000 -0.475819 -0.560229 0.678041
-104.709971 -124.049230 148.472925 44.000000 -0.475819 -0.560229 0.678041
-104.755825 -123.980922 148.530202 44.000000 -0.475819 -0.560229 0.678041
-104.771212 -123.875267 148.589979 44.000000 -0.475819 -0.560229 0.678041
-104.792420 -123.796640 148.625557 44.000000 -0.475819 -0.560229 0.678041
-104.797699 -123.695736 148.673445 44.000000 -0.475819 -0.560229 0.678041
-104.849741 -123.628515 148.727234 44.000000 -0.475819 -0.560229 0.678041
-104.883570 -123.540760 148.796277 44.000000 -0.475819 -0.560229 0.678041
-104.901830 -123.456235 148.860887 44.000000 -0.475819 -0.560229 0.678041
-104.928358 -123.357059 148.885238 44.000000 -0.475819 -0.560229 0.678041
-104.972882 -123.296539 148.944404 44.000000 -0.475819 -0.560229 0.678041
-105.003802 -123.200191 149.002192 44.000000 -0.475819 -0.560229 0.678041
-105.027006 -123.106159 149.047613 44.000000 -0.475819 -0.560229 0.678041
-105.057874 -123.003575 149.100404 44.000000 -0.475819 -0.560229 0.678041
-105.091150 -122.936502 149.161742 44.000000 -0.475819 -0.560229 0.678041
-105.124258 -122.842360 149.191295 44.000000 -0.475819 -0.560229 0.678041
-105.169044 -122.747064 149.248700 44.000000 -0.475819 -0.560229 0.678041
-105.162205 -122.667378 149.300108 44.000000 -0.475819 -0.560229 0.678041
-105.206488 -122.582795 149.346658 44.000000 -0.475819 -0.560229 0.678041
-105.223969 -122.492805 149.396515 44.000000 -0.475819 -0.560229 0.678041
-105.281563 -122.409013 149.443907 44.000000 -0.475819 -0.560229 0.678041
-104.800447 -124.045528 148.433142 44.000000 -0.475819 -0.560229 0.678041
-104.840875 -123.985763 148.449371 44.000000 -0.475819 -0.560229 0.678041
-104.844198 -123.888779 148.526721 44.000000 -0.475819 -0.560229 0.678041
-104.891570 -123.818653 148.563511 44.000000 -0.475819 -0.560229 0.678041
-104.906211 -123.713223 148.612635 44.000000 -0.475819 -0.560229 0.678041
-104.945525 -123.633847 148.659971 44.000000 -0.475819 -0.560229 0.678041
-104.981804 -123.518206 148.716577 44.000000 -0.475819 -0.560229 0.678041
-105.010818 -123.443452 148.764657 44.000000 -0.475819 -0.560229 0.678041
-105.041900 -123.363864 148.828829 44.000000 -0.475819 -0.560229 0.678041
-105.058762 -123.274559 148.869501 44.000000 -0.475819 -0.560229 0.678041
-105.099875 -123.164841 148.933169 44.000000 -0.475819 -0.560229 0.678041
-105.107535 -123.117281 149.004249 44.000000 -0.475819 -0.560229 0.678041
-105.148918 -123.014378 149.029625 44.000000 -0.475819 -0.560229 0.678041
-105.172405 -122.927492 149.095647 44.000000 -0.475819 -0.560229 0.678041
-105.211865 -122.831587 149.135359 44.000000 -0.475819 -0.560229 0.678041
-105.239362 -122.760273 149.197868 44.000000 -0.475819 -0.560229 0.678041
-105.247891 -122.655240 149.247359 44.000000 -0.475819 -0.560229 0.678041
-105.307251 -122.555409 149.298987 44.000000 -0.475819 -0.560229 0.678041
-105.325555 -122.503893 149.347849 44.000000 -0.475819 -0.560229 0.678041
-105.365993 -122.410051 149.408309 44.000000 -0.475819 -0.560229 0.678041
-104.875010 -124.048704 148.345968 44.000000 -0.475819 -0.560229 0.678041
-104.897715 -123.962866 148.423563 44.000000 -0.475819 -0.560229 0.678041
-104.924711 -123.880781 148.462795 44.000000 -0.475819 -0.560229 0.678041
-104.969619 -123.772491 148.521995 44.000000 -0.475819 -0.560229 0.678041
-105.011583 -123.692095 148.567972 44.000000 -0.475819 -0.560229 0.678041
-105.031207 -123.609785 148.636052 44.000000 -0.475819 -0.560229 0.678041
-105.048078 -123.536251 148.673446 44.000000 -0.475819 -0.560229 0.678041
-105.090342 -123.448981 148.735494 44.000000 -0.475819 -0.560229 0.678041
-105.124379 -123.364208 148.771548 44.000000 -0.475819 -0.560229 0.678041
-105.153497 -123.273964 148.829127 44.000000 -0.475819 -0.560229 0.678041
-105.176149 -123.180261 148.860298 44.000000 -0.475819 -0.560229 0.678041
-105.206132 -123.086364 148.928245 44.000000 -0.475819 -0.560229 0.678041
-105.232926 -122.999285 148.969939 44.000000 -0.475819 -0.560229 0.678041
-105.262072 -122.920581 149.026365 44.000000 -0.475819 -0.560229 0.678041
-105.296377 -122.831116 149.082042 44.000000 -0.475819 -0.560229 0.678041
-105.324035 -122.751518 149.131640 44.000000 -0.475819 -0.560229 0.678041
-105.363360 -122.646475 149.174981 44.000000 -0.475819 -0.560229 0.678041
-105.369509 -122.570019 149.230391 44.000000 -0.475819 -0.560229 0.678041
-105.427867 -122.496086 149.277764 44.000000 -0.475819 -0.560229 0.678041
-105.443089 -122.388944 149.351889 44.000000 -0.475819 -0.560229 0.678041
-104.955873 -124.044726 148.319523 44.000000 -0.475819 -0.560229 0.678041
-105.022563 -123.965991 148.350204 44.000000 -0.475819 -0.560229 0.678041
-105.027875 -123.884842 148.400585 44.000000 -0.475819 -0.560229 0.678041
-105.054449 -123.793077 148.460848 44.000000 -0.475819 -0.560229 0.678041
-105.094765 -123.690104 148.496312 44.000000 -0.475819 -0.560229 0.678041
-105.123278 -123.620287 148.566566 44.000000 -0.475819 -0.560229 0.678041
-105.156839 -123.509303 148.605183 44.000000 -0.475819 -0.560229 0.678041
-105.167990 -123.446281 148.663606 44.000000 -0.475819 -0.560229 0.678041
-105.208587 -123.344576 148.725504 44.000000 -0.475819 -0.560229 0.678041
-105.210346 -123.255911 148.756856 44.000000 -0.475819 -0.560229 0.678041
-105.271000 -123.175857 148.817472 44.000000 -0.475819 -0.560229 0.678041
-105.307432 -123.079535 148.867934 44.000000 -0.475819 -0.560229 0.678041
-105.323113 -123.014990 148.923045 44.000000 -0.475819 -0.560229 0.678041
-105.344545 -122.923011 148.983960 44.000000 -0.475819 -0.560229 0.678041
-105.370844 -122.839941 149.037605 44.000000 -0.475819 -0.560229 0.678041
-105.425175 -122.737433 149.068587 44.000000 -0.475819 -0.560229 0.678041
-105.450419 -122.662781 149.114443 44.000000 -0.475819 -0.560229 0.678041
-105.470847 -122.579319 149.191164 44.000000 -0.475819 -0.560229 0.678041
-105.513525 -122.485184 149.222216 44.000000 -0.475819 -0.560229 0.678041
-105.538474 -122.393052 149.279529 44.000000 -0.475819 -0.560229 0.678041
-105.049456 -124.052635 148.261259 44.000000 -0.475819 -0.560229 0.678041
-105.101509 -123.983519 148.313471 44.000000 -0.475819 -0.560229 0.678041
-105.131506 -123.887456 148.352034 44.000000 -0.475819 -0.560229 0.678041
-105.167019 -123.777372 148.400583 44.000000 -0.475819 -0.560229 0.678041
-105.172882 -123.697887 148.450876 44.000000 -0.475819 -0.560229 0.678041
-105.205394 -123.605034 148.495627 44.000000 -0.475819 -0.560229 0.678041
-105.247125 -123.520519 148.556164 44.000000 -0.475819 -0.560229 0.678041
-105.277375 -123.433822 148.616079 44.000000 -0.475819 -0.560229 0.678041
-105.313121 -123.357723 148.655535 44.000000 -0.475819 -0.560229 0.678041
-105.308830 -123.239874 148.713770 44.000000 -0.475819 -0.560229 0.678041
-105.351711 -123.157933 148.747249 44.000000 -0.475819 -0.560229 0.678041
-105.386968 -123.092190 148.804537 44.000000 -0.475819 -0.560229 0.678041
-105.418226 -123.002266 148.855051 44.000000 -0.475819 -0.560229 0.678041
-105.417530 -122.936117 148.907518 44.000000 -0.475819 -0.560229 0.678041
-105.481086 -122.825086 148.957778 44.000000 -0.475819 -0.560229 0.678041
-105.493513 -122.729341 149.033153 44.000000 -0.475819 -0.560229 0.678041
-105.532653 -122.649400 149.066631 44.000000 -0.475819 -0.560229 0.678041
-105.550794 -122.559977 149.095468 44.000000 -0.475819 -0.560229 0.678041
-105.606705 -122.483288 149.183173 44.000000 -0.475819 -0.560229 0.678041
-105.594788 -122.378077 149.224817 44.000000 -0.475819 -0.560229 0.678041
-105.152463 -124.034056 148.173919 44.000000 -0.475819 -0.560229 0.678041
-105.180821 -123.950851 148.242370 44.000000 -0.475819 -0.560229 0.678041
-105.212829 -123.855156 148.308648 44.000000 -0.475819 -0.560229 0.678041
-105.246224 -123.774710 148.349109 44.000000 -0.475819 -0.560229 0.678041
-105.268552 -123.694472 148.397304 44.000000 -0.475819 -0.560229 0.678041
-105.303747 -123.598596 148.450659 44.000000 -0.475819 -0.560229 0.678041
-105.339192 -123.522629 148.494655 44.000000 -0.475819 -0.560229 0.678041
-105.358461 -123.441958 148.563642 44.000000 -0.475819 -0.560229 0.678041
-105.379810 -123.343398 148.592369 44.000000 -0.475819 -0.560229 0.678041
-105.409844 -123.266697 148.658477 44.000000 -0.475819 -0.560229 0.678041
-105.425832 -123.169069 148.706632 44.000000 -0.475819 -0.560229 0.678041
-105.474574 -123.071101 148.756410 44.000000 -0.475819 -0.560229 0.678041
-105.496985 -122.987985 148.801861 44.000000 -0.475819 -0.560229 0.678041
-105.525457 -122.924684 148.857539 44.000000 -0.475819 -0.560229 0.678041
-105.566703 -122.821103 148.910334 44.000000 -0.475819 -0.560229 0.678041
-105.589117 -122.734768 148.969515 44.000000 -0.475819 -0.560229 0.678041
-105.608440 -122.653119 149.018348 44.000000 -0.475819 -0.560229 0.678041
-105.644494 -122.576094 149.049856 44.000000 -0.475819 -0.560229 0.678041
-105.673116 -122.469782 149.129496 44.000000 -0.475819 -0.560229 0.678041
-105.697699 -122.369773 149.177877 44.000000 -0.475819 -0.560229 0.678041
-105.243015 -124.042987 148.141478 44.000000 -0.475819 -0.560229 0.678041
-105.261038 -123.961740 148.188418 44.000000 -0.475819 -0.560229 0.678041
-105.289013 -123.844974 148.231166 44.000000 -0.475819 -0.560229 0.678041
-105.313854 -123.774079 148.277674 44.000000 -0.475819 -0.560229 0.678041
-105.349212 -123.682053 148.336663 44.000000 -0.475819 -0.560229 0.678041
-105.384222 -123.596470 148.387652 44.000000 -0.475819 -0.560229 0.678041
-105.421001 -123.501631 148.448621 44.000000 -0.475819 -0.560229 0.678041
-105.436687 -123.424535 148.493806 44.000000 -0.475819 -0.560229 0.678041
-105.462943 -123.334415 148.545100 44.000000 -0.475819 -0.560229 0.678041
-105.499470 -123.256124 148.589604 44.000000 -0.475819 -0.560229 0.678041
-105.520287 -123.164433 148.646954 44.000000 -0.475819 -0.560229 0.678041
-105.565445 -123.080843 148.678029 44.000000 -0.475819 -0.560229 0.678041
-105.600988 -122.986914 148.747100 44.000000 -0.475819 -0.560229 0.678041
-105.624146 -122.901239 148.795498 44.000000 -0.475819 -0.560229 0.678041
-105.634137 -122.817872 148.848896 44.000000 -0.475819 -0.560229 0.678041
-105.681953 -122.724302 148.916802 44.000000 -0.475819 -0.560229 0.678041
-105.698919 -122.652142 148.953157 44.000000 -0.475819 -0.560229 0.678041
-105.721417 -122.562727 149.019759 44.000000 -0.475819 -0.560229 0.678041
-105.755745 -122.470178 149.057284 44.000000 -0.475819 -0.560229 0.678041
-105.790041 -122.370589 149.111357 44.000000 -0.475819 -0.560229 0.678041
-78.064696 51.754466 204.576927 45.000000 -0.343154 0.225630 0.911776
-78.081243 51.631357 204.605480 45.000000 -0.343154 0.225630 0.911776
-78.094990 51.566559 204.640858 45.000000 -0.343154 0.225630 0.911776
-78.080361 51.434021 204.649533 45.000000 -0.343154 0.225630 0.911776
-78.102700 51.346583 204.675013 45.000000 -0.343154 0.225630 0.911776
-78.117616 51.220556 204.695709 45.000000 -0.343154 0.225630 0.911776
-78.131698 51.132925 204.703225 45.000000 -0.343154 0.225630 0.911776
-78.120542 51.028789 204.736135 45.000000 -0.343154 0.225630 0.911776
-78.142349 50.932502 204.759314 45.000000 -0.343154 0.225630 0.911776
-78.119334 50.825279 204.789790 45.000000 -0.343154 0.225630 0.911776
-78.145809 50.706817 204.791784 45.000000 -0.343154 0.225630 0.911776
-78.159792 50.633140 204.840693 45.000000 -0.343154 0.225630 0.911776
-78.150400 50.531167 204.842736 45.000000 -0.343154 0.225630 0.911776
-78.168477 50.406077 204.864031 45.000000 -0.343154 0.225630 0.911776
-78.172348 50.313168 204.897342 45.000000 -0.343154 0.225630 0.911776
-78.197374 50.218521 204.921548 45.000000 -0.343154 0.225630 0.911776
-78.207577 50.106214 204.949870 45.000000 -0.343154 0.225630 0.911776
-78.198002 49.995346 204.978394 45.000000 -0.343154 0.225630 0.911776
-78.208455 49.896005 204.991967 45.000000 -0.343154 0.225630 0.911776
-78.249211 49.802993 205.006181 45.000000 -0.343154 0.225630 0.911776
-77.963425 51.740156 204.628716 45.000000 -0.343154 0.225630 0.911776
-77.954978 51.644348 204.639089 45.000000 -0.343154 0.225630 0.911776
-77.992244 51.533998 204.670145 45.000000 -0.343154 0.225630 0.911776
-77.993289 51.436009 204.689999 45.000000 -0.343154 0.225630 0.911776
-78.006435 51.330500 204.710727 45.000000 -0.343154 0.225630 0.911776
-78.000615 51.219569 204.739321 45.000000 -0.343154 0.225630 0.911776
-78.003115 51.124728 204.753813 45.000000 -0.343154 0.225630 0.911776
-78.027641 51.033531 204.790632 45.000000 -0.343154 0.225630 0.911776
-78.042616 50.929164 204.813999 45.000000 -0.343154 0.225630 0.911776
-78.051106 50.825061 204.824000 45.000000 -0.343154 0.225630 0.911776
-78.047855 50.712569 204.823966 45.000000 -0.343154 0.225630 0.911776
-78.052524 50.610203 204.865574 45.000000 -0.343154 0.225630 0.911776
-78.067177 50.521082 204.865381 45.000000 -0.343154 0.225630 0.911776
-78.083275 50.410041 204.904867 45.000000 -0.343154 0.225630 0.911776
-78.077237 50.310697 204.933815 45.000000 -0.343154 0.225630 0.911776
-78.081250 50.205463 204.954608 45.000000 -0.343154 0.225630 0.911776
-78.118579 50.125009 204.972486 45.000000 -0.343154 0.225630 0.911776
-78.106190 49.991477 205.001811 45.000000 -0.343154 0.225630 0.911776
-78.111915 49.902073 205.023620 45.000000 -0.343154 0.225630 0.911776
-78.127958 49.788678 205.061863 45.000000 -0.343154 0.225630 0.911776
-77.860965 51.734249 204.623201 45.000000 -0.343154 0.225630 0.911776
-77.859884 51.648648 204.688465 45.000000 -0.343154 0.225630 0.911776
-77.871630 51.523760 204.723128 45.000000 -0.343154 0.225630 0.911776
-77.878416 51.428180 204.727414 45.000000 -0.343154 0.225630 0.911776
-77.911200 51.327368 204.776294 45.000000 -0.343154 0.225630 0.911776
-77.917716 51.203523 204.775266 45.000000 -0.343154 0.225630 0.911776
-77.900361 51.127628 204.785070 45.000000 -0.343154 0.225630 0.911776
-77.936681 51.033550 204.798772 45.000000 -0.343154 0.225630 0.911776
-77.933928 50.913634 204.827051 45.000000 -0.343154 0.225630 0.911776
-77.924964 50.815695 204.852287 45.000000 -0.343154 0.225630 0.911776
-77.969595 50.708832 204.870002 45.000000 -0.343154 0.225630 0.911776
-77.940499 50.598048 204.903504 45.000000 -0.343154 0.225630 0.911776
-77.976514 50.494329 204.931737 45.000000 -0.343154 0.225630 0.911776
-77.996544 50.399882 204.947170 45.000000 -0.343154 0.225630 0.911776
-78.006609 50.309450 204.969637 45.000000 -0.343154 0.225630 0.911776
-77.986424 50.214091 204.999558 45.000000 -0.343154 0.225630 0.911776
-78.029582 50.120431 205.007303 45.000000 -0.343154 0.225630 0.911776
-77.994854 50.017322 205.043556 45.000000 -0.343154 0.225630 0.911776
-77.998288 49.886356 205.054968 45.000000 -0.343154 0.225630 0.911776
-78.033711 49.799327 205.072615 45.000000 -0.343154 0.225630 0.911776
-77.765980 51.747377 204.692470 45.000000 -0.343154 0.225630 0.911776
-77.775180 51.645870 204.718153 45.000000 -0.343154 0.225630 0.911776
-77.771981 51.536744 204.745699 45.000000 -0.343154 0.225630 0.911776
-77.774839 51.439645 204.771631 45.000000 -0.343154 0.225630 0.911776
-77.787226 51.330278 204.779553 45.000000 -0.343154 0.225630 0.911776
-77.812562 51.212853 204.801271 45.000000 -0.343154 0.225630 0.911776
-77.831964 51.143195 204.840934 45.000000 -0.343154 0.225630 0.911776
-77.811232 51.018774 204.858055 45.000000 -0.343154 0.225630 0.911776
-77.830837 50.913711 204.869388 45.000000 -0.343154 0.225630 0.911776
-77.832491 50.819057 204.879938 45.000000 -0.343154 0.225630 0.911776
-77.855608 50.706840 204.906793 45.000000 -0.343154 0.225630 0.911776
-77.874519 50.602467 204.933543 45.000000 -0.343154 0.225630 0.911776
-77.869295 50.511827 204.970480 45.000000 -0.343154 0.225630 0.911776
-77.874648 50.418640 204.972382 45.000000 -0.343154 0.225630 0.911776
-77.901431 50.289258 204.996091 45.000000 -0.343154 0.225630 0.911776
-77.887998 50.207247 205.029294 45.000000 -0.343154 0.225630 0.911776
-77.905725 50.092596 205.052322 45.000000 -0.343154 0.225630 0.911776
-77.916294 50.000519 205.061854 45.000000 -0.343154 0.225630 0.911776
-77.922426 49.893045 205.086913 45.000000 -0.343154 0.225630 0.911776
-77.933049 49.788266 205.124078 45.000000 -0.343154 0.225630 0.911776
-77.678725 51.742740 204.731561 45.000000 -0.343154 0.225630 0.911776
-77.701019 51.653501 204.755353 45.000000 -0.343154 0.225630 0.911776
-77.692758 51.534314 204.776143 45.000000 -0.343154 0.225630 0.911776
-77.709432 51.437546 204.809677 45.000000 -0.343154 0.225630 0.911776
-77.704799 51.335735 204.811858 45.000000 -0.343154 0.225630 0.911776
-77.710212 51.232972 204.847698 45.000000 -0.343154 0.225630 0.911776
-77.715855 51.123553 204.870096 45.000000 -0.343154 0.225630 0.911776
-77.726864 51.027085 204.899377 45.000000 -0.343154 0.225630 0.911776
-77.745100 50.939938 204.912411 45.000000 -0.343154 0.225630 0.911776
-77.740391 50.816995 204.929004 45.000000 -0.343154 0.225630 0.911776
-77.748349 50.708652 204.939591 45.000000 -0.343154 0.225630 0.911776
-77.761887 50.609646 204.975028 45.000000 -0.343154 0.225630 0.911776
-77.772098 50.512325 205.024454 45.000000 -0.343154 0.225630 0.911776
-77.785953 50.402538 205.033881 45.000000 -0.343154 0.225630 0.911776
-77.805819 50.297517 205.033256 45.000000 -0.343154 0.225630 0.911776
-77.798507 50.204375 205.051510 45.000000 -0.343154 0.225630 0.911776
-77.829556 50.093250 205.093310 45.000000 -0.343154 0.225630 0.911776
-77.814927 49.989552 205.090564 45.000000 -0.343154 0.225630 0.911776
-77.837266 49.895306 205.128615 45.000000 -0.343154 0.225630 0.911776
-77.847408 49.789459 205.147356 45.000000 -0.343154 0.225630 0.911776
-77.563103 51.733903 204.767873 45.000000 -0.343154 0.225630 0.911776
-77.582669 51.639887 204.784757 45.000000 -0.343154 0.225630 0.911776
-77.606210 51.537133 204.831708 45.000000 -0.343154 0.225630 0.911776
-77.587316 51.429992 204.846913 45.000000 -0.343154 0.225630 0.911776
-77.593000 51.320256 204.874544 45.000000 -0.343154 0.225630 0.911776
-77.607156 51.226559 204.884277 45.000000 -0.343154 0.225630 0.911776
-77.610138 51.122044 204.908907 45.000000 -0.343154 0.225630 0.911776
-77.607235 51.024927 204.916228 45.000000 -0.343154 0.225630 0.911776
-77.653431 50.912293 204.942349 45.000000 -0.343154 0.225630 0.911776
-77.648418 50.808333 204.975176 45.000000 -0.343154 0.225630 0.911776
-77.651268 50.711606 205.005585 45.000000 -0.343154 0.225630 0.911776
-77.675477 50.604812 205.003885 45.000000 -0.343154 0.225630 0.911776
-77.672472 50.501457 205.028600 45.000000 -0.343154 0.225630 0.911776
-77.699446 50.425348 205.056346 45.000000 -0.343154 0.225630 0.911776
-77.697263 50.312682 205.075462 45.000000 -0.343154 0.225630 0.911776
-77.715891 50.189761 205.113853 45.000000 -0.343154 0.225630 0.911776
-77.715911 50.103701 205.122164 45.000000 -0.343154 0.225630 0.911776
-77.717036 50.010186 205.159391 45.000000 -0.343154 0.225630 0.911776
-77.709166 49.882195 205.175151 45.000000 -0.343154 0.225630 0.911776
-77.724560 49.780423 205.195495 45.000000 -0.343154 0.225630 0.911776
-77.473139 51.734698 204.807572 45.000000 -0.343154 0.225630 0.911776
-77.491737 51.630133 204.831974 45.000000 -0.343154 0.225630 0.911776
-77.498354 51.538170 204.847782 45.000000 -0.343154 0.225630 0.911776
-77.511300 51.425162 204.878723 45.000000 -0.343154 0.225630 0.911776
-77.503206 51.328378 204.898603 45.000000 -0.343154 0.225630 0.911776
-77.515236 51.243706 204.914472 45.000000 -0.343154 0.225630 0.911776
-77.522974 51.142242 204.922997 45.000000 -0.343154 0.225630 0.911776
-77.519820 51.007079 204.980532 45.000000 -0.343154 0.225630 0.911776
-77.547805 50.924300 205.003054 45.000000 -0.343154 0.225630 0.911776
-77.562550 50.816926 205.007198 45.000000 -0.343154 0.225630 0.911776
-77.562178 50.719128 205.030102 45.000000 -0.343154 0.225630 0.911776
-77.564383 50.621183 205.045014 45.000000 -0.343154 0.225630 0.911776
-77.599229 50.506840 205.064202 45.000000 -0.343154 0.225630 0.911776
-77.578764 50.420390 205.092250 45.000000 -0.343154 0.225630 0.911776
-77.598480 50.327004 205.111087 45.000000 -0.343154 0.225630 0.911776
-77.606936 50.209487 205.131890 45.000000 -0.343154 0.225630 0.911776
-77.612131 50.099918 205.153961 45.000000 -0.343154 0.225630 0.911776
-77.620771 50.002457 205.182216 45.000000 -0.343154 0.225630 0.911776
-77.608981 49.906324 205.193226 45.000000 -0.343154 0.225630 0.911776
-77.628754 49.795192 205.238812 45.000000 -0.343154 0.225630 0.911776
-77.378205 51.746543 204.839340 45.000000 -0.343154 0.225630 0.911776
-77.406235 51.631807 204.860359 45.000000 -0.343154 0.225630 0.911776
-77.411209 51.544644 204.883886 45.000000 -0.343154 0.225630 0.911776
-77.401261 51.439418 204.908672 45.000000 -0.343154 0.225630 0.911776
-77.392108 51.340450 204.937158 45.000000 -0.343154 0.225630 0.911776
-77.388773 51.238043 204.940386 45.000000 -0.343154 0.225630 0.911776
-77.421965 51.148074 204.982856 45.000000 -0.343154 0.225630 0.911776
-77.419014 51.017367 204.998007 45.000000 -0.343154 0.225630 0.911776
-77.429835 50.915983 205.028434 45.000000 -0.343154 0.225630 0.911776
-77.451845 50.816892 205.045200 45.000000 -0.343154 0.225630 0.911776
-77.464452 50.693802 205.076194 45.000000 -0.343154 0.225630 0.911776
-77.469116 50.631092 205.093164 45.000000 -0.343154 0.225630 0.911776
-77.491907 50.500176 205.110440 45.000000 -0.343154 0.225630 0.911776
-77.497225 50.396986 205.144102 45.000000 -0.343154 0.225630 0.911776
-77.494997 50.312950 205.162158 45.000000 -0.343154 0.225630 0.911776
-77.493653 50.203470 205.193120 45.000000 -0.343154 0.225630 0.911776
-77.493450 50.096835 205.204303 45.000000 -0.343154 0.225630 0.911776
-77.529052 49.989419 205.205420 45.000000 -0.343154 0.225630 0.911776
-77.532223 49.874286 205.239521 45.000000 -0.343154 0.225630 0.911776
-77.529045 49.804077 205.283459 45.000000 -0.343154 0.225630 0.911776
-77.276923 51.739060 204.894519 45.000000 -0.343154 0.225630 0.911776
-77.297214 51.618488 204.899668 45.000000 -0.343154 0.225630 0.911776
-77.280010 51.532422 204.928921 45.000000 -0.343154 0.225630 0.911776
-77.287298 51.439976 204.958377 45.000000 -0.343154 0.225630 0.911776
-77.304636 51.309717 204.984651 45.000000 -0.343154 0.225630 0.911776
-77.327712 51.207879 204.982036 45.000000 -0.343154 0.225630 0.911776
-77.326080 51.107922 205.029209 45.000000 -0.343154 0.225630 0.911776
-77.352321 51.025204 205.030166 45.000000 -0.343154 0.225630 0.911776
-77.370060 50.932128 205.045209 45.000000 -0.343154 0.225630 0.911776
-77.350488 50.830449 205.082047 45.000000 -0.343154 0.225630 0.911776
-77.366726 50.710644 205.111317 45.000000 -0.343154 0.225630 0.911776
-77.367381 50.604981 205.131168 45.000000 -0.343154 0.225630 0.911776
-77.385871 50.521082 205.155326 45.000000 -0.343154 0.225630 0.911776
-77.394255 50.415302 205.170507 45.000000 -0.343154 0.225630 0.911776
-77.397421 50.302805 205.201523 45.000000 -0.343154 0.225630 0.911776
-77.414976 50.208885 205.218790 45.000000 -0.343154 0.225630 0.911776
-77.413817 50.102198 205.232670 45.000000 -0.343154 0.225630 0.911776
-77.424426 50.016805 205.270701 45.000000 -0.343154 0.225630 0.911776
-77.431562 49.898258 205.289164 45.000000 -0.343154 0.225630 0.911776
-77.423221 49.781415 205.308678 45.000000 -0.343154 0.225630 0.911776
-77.181962 51.736809 204.911328 45.000000 -0.343154 0.225630 0.911776
-77.193689 51.619643 204.926021 45.000000 -0.343154 0.225630 0.911776
-77.203360 51.519721 204.951524 45.000000 -0.343154 0.225630 0.911776
-77.193743 51.422331 205.004619 45.000000 -0.343154 0.225630 0.911776
-77.216914 51.322544 205.017402 45.000000 -0.343154 0.225630 0.911776
-77.216665 51.212206 205.016547 45.000000 -0.343154 0.225630 0.911776
-77.231237 51.115442 205.056630 45.000000 -0.343154 0.225630 0.911776
-77.234054 51.026579 205.083173 45.000000 -0.343154 0.225630 0.911776
-77.237557 50.910592 205.082390 45.000000 -0.343154 0.225630 0.911776
-77.246710 50.833519 205.130949 45.000000 -0.343154 0.225630 0.911776
-77.278638 50.725390 205.133832 45.000000 -0.343154 0.225630 0.911776
-77.272224 50.619874 205.173005 45.000000 -0.343154 0.225630 0.911776
-77.265894 50.508208 205.168758 45.000000 -0.343154 0.225630 0.911776
-77.308947 50.404568 205.198403 45.000000 -0.343154 0.225630 0.911776
-77.306147 50.307870 205.217498 45.000000 -0.343154 0.225630 0.911776
-77.287785 50.207294 205.240966 45.000000 -0.343154 0.225630 0.911776
-77.302782 50.109618 205.272106 45.000000 -0.343154 0.225630 0.911776
-77.332047 49.995992 205.299262 45.000000 -0.343154 0.225630 0.911776
-77.331773 49.897399 205.311077 45.000000 -0.343154 0.225630 0.911776
-77.343802 49.773171 205.349159 45.000000 -0.343154 0.225630 0.911776
-77.095579 51.741542 204.956719 45.000000 -0.343154 0.225630 0.911776
-77.079915 51.641131 204.963264 45.000000 -0.343154 0.225630 0.911776
-77.080678 51.541483 205.002183 45.000000 -0.343154 0.225630 0.911776
-77.090422 51.438831 205.020917 45.000000 -0.343154 0.225630 0.911776
-77.110907 51.337957 205.029219 45.000000 -0.343154 0.225630 0.911776
-77.108104 51.203202 205.065162 45.000000 -0.343154 0.225630 0.911776
-77.128395 51.124000 205.087745 45.000000 -0.343154 0.225630 0.911776
-77.162679 51.018411 205.097555 45.000000 -0.343154 0.225630 0.911776
-77.135413 50.919745 205.148110 45.000000 -0.343154 0.225630 0.911776
-77.152231 50.831388 205.149426 45.000000 -0.343154 0.225630 0.911776
-77.143658 50.696343 205.170750 45.000000 -0.343154 0.225630 0.911776
-77.175281 50.604093 205.203776 45.000000 -0.343154 0.225630 0.911776
-77.187261 50.497123 205.216498 45.000000 -0.343154 0.225630 0.911776
-77.178191 50.415406 205.253944 45.000000 -0.343154 0.225630 0.911776
-77.209068 50.311177 205.269382 45.000000 -0.343154 0.225630 0.911776
-77.217009 50.206321 205.312134 45.000000 -0.343154 0.225630 0.911776
-77.229867 50.086680 205.307843 45.000000 -0.343154 0.225630 0.911776
-77.218251 49.998280 205.337256 45.000000 -0.343154 0.225630 0.911776
-77.222652 49.893353 205.362271 45.000000 -0.343154 0.225630 0.911776
-77.243404 49.812861 205.398257 45.000000 -0.343154 0.225630 0.911776
-76.973626 51.735809 204.986473 45.000000 -0.343154 0.225630 0.911776
-76.985590 51.647729 205.029139 45.000000 -0.343154 0.225630 0.911776
-77.009690 51.528800 205.037677 45.000000 -0.343154 0.225630 0.911776
-77.007061 51.427907 205.070152 45.000000 -0.343154 0.225630 0.911776
-77.015578 51.342478 205.084087 45.000000 -0.343154 0.225630 0.911776
-77.025483 51.227669 205.113850 45.000000 -0.343154 0.225630 0.911776
-77.032505 51.126198 205.136932 45.000000 -0.343154 0.225630 0.911776
-77.042438 51.029236 205.132780 45.000000 -0.343154 0.225630 0.911776
-77.066946 50.909367 205.149754 45.000000 -0.343154 0.225630 0.911776
-77.064181 50.821987 205.199164 45.000000 -0.343154 0.225630 0.911776
-77.077284 50.699365 205.210985 45.000000 -0.343154 0.225630 0.911776
-77.097820 50.614198 205.236586 45.000000 -0.343154 0.225630 0.911776
-77.077776 50.510821 205.256491 45.000000 -0.343154 0.225630 0.911776
-77.084629 50.399901 205.266298 45.000000 -0.343154 0.225630 0.911776
-77.100509 50.301239 205.291613 45.000000 -0.343154 0.225630 0.911776
-77.111636 50.191793 205.339529 45.000000 -0.343154 0.225630 0.911776
-77.119102 50.104713 205.362293 45.000000 -0.343154 0.225630 0.911776
-77.126902 50.014977 205.374648 45.000000 -0.343154 0.225630 0.911776
-77.132671 49.894264 205.390123 45.000000 -0.343154 0.225630 0.911776
-77.155994 49.794596 205.405259 45.000000 -0.343154 0.225630 0.911776
-76.884115 51.741030 205.025024 45.000000 -0.343154 0.225630 0.911776
-76.902210 51.627262 205.047927 45.000000 -0.343154 0.225630 0.911776
-76.899752 51.537653 205.071043 45.000000 -0.343154 0.225630 0.911776
-76.896758 51.436471 205.119859 45.000000 -0.343154 0.225630 0.911776
-76.906164 51.339149 205.133368 45.000000 -0.343154 0.225630 0.911776
-76.917263 51.214743 205.136894 45.000000 -0.343154 0.225630 0.911776
-76.929007 51.121485 205.166614 45.000000 -0.343154 0.225630 0.911776
-76.934429 51.041941 205.182696 45.000000 -0.343154 0.225630 0.911776
-76.942713 50.933180 205.224667 45.000000 -0.343154 0.225630 0.911776
-76.969862 50.812235 205.232258 45.000000 -0.343154 0.225630 0.911776
-76.982637 50.737751 205.248095 45.000000 -0.343154 0.225630 0.911776
-76.984652 50.603910 205.284286 45.000000 -0.343154 0.225630 0.911776
-76.979596 50.512778 205.276846 45.000000 -0.343154 0.225630 0.911776
-76.988278 50.398750 205.292635 45.000000 -0.343154 0.225630 0.911776
-77.003843 50.300004 205.340086 45.000000 -0.343154 0.225630 0.911776
-77.012805 50.193199 205.370013 45.000000 -0.343154 0.225630 0.911776
-77.044385 50.123277 205.384282 45.000000 -0.343154 0.225630 0.911776
-77.028433 49.986577 205.401513 45.000000 -0.343154 0.225630 0.911776
-77.025659 49.900782 205.422686 45.000000 -0.343154 0.225630 0.911776
-77.055307 49.794547 205.477094 45.000000 -0.343154 0.225630 0.911776
-76.797205 51.736808 205.054301 45.000000 -0.343154 0.225630 0.911776
-76.790949 51.638705 205.083058 45.000000 -0.343154 0.225630 0.911776
-76.799450 51.531460 205.108525 45.000000 -0.343154 0.225630 0.911776
-76.806399 51.441528 205.127828 45.000000 -0.343154 0.225630 0.911776
-76.825693 51.339004 205.149296 45.000000 -0.343154 0.225630 0.911776
-76.831932 51.235048 205.203059 45.000000 -0.343154 0.225630 0.911776
-76.826570 51.127107 205.194791 45.000000 -0.343154 0.225630 0.911776
-76.862933 51.016182 205.222476 45.000000 -0.343154 0.225630 0.911776
-76.830658 50.916541 205.256287 45.000000 -0.343154 0.225630 0.911776
-76.866280 50.825369 205.255856 45.000000 -0.343154 0.225630 0.911776
-76.862342 50.711428 205.312958 45.000000 -0.343154 0.225630 0.911776
-76.871662 50.617682 205.297430 45.000000 -0.343154 0.225630 0.911776
-76.885540 50.490879 205.338205 45.000000 -0.343154 0.225630 0.911776
-76.884532 50.404691 205.362027 45.000000 -0.343154 0.225630 0.911776
-76.899847 50.306857 205.375631 45.000000 -0.343154 0.225630 0.911776
-76.904807 50.211302 205.417064 45.000000 -0.343154 0.225630 0.911776
-76.907951 50.095752 205.412560 45.000000 -0.343154 0.225630 0.911776
-76.930827 50.007547 205.427919 45.000000 -0.343154 0.225630 0.911776
-76.931747 49.887696 205.470186 45.000000 -0.343154 0.225630 0.911776
-76.957298 49.779697 205.478616 45.000000 -0.343154 0.225630 0.911776
-76.704721 51.748634 205.102473 45.000000 -0.343154 0.225630 0.911776
-76.689751 51.647941 205.132305 45.000000 -0.343154 0.225630 0.911776
-76.704168 51.542399 205.159499 45.000000 -0.343154 0.225630 0.911776
-76.698276 51.425403 205.172905 45.000000 -0.343154 0.225630 0.911776
-76.736570 51.323518 205.199924 45.000000 -0.343154 0.225630 0.911776
-76.719789 51.219030 205.214585 45.000000 -0.343154 0.225630 0.911776
-76.743860 51.118145 205.232825 45.000000 -0.343154 0.225630 0.911776
-76.730688 51.026988 205.248111 45.000000 -0.343154 0.225630 0.911776
-76.738107 50.932109 205.280306 45.000000 -0.343154 0.225630 0.911776
-76.764632 50.834583 205.313836 45.000000 -0.343154 0.225630 0.911776
-76.755867 50.724324 205.337141 45.000000 -0.343154 0.225630 0.911776
-76.772460 50.613779 205.355092 45.000000 -0.343154 0.225630 0.911776
-76.797603 50.511044 205.372197 45.000000 -0.343154 0.225630 0.911776
-76.787433 50.413398 205.394302 45.000000 -0.343154 0.225630 0.911776
-76.803535 50.308415 205.427610 45.000000 -0.343154 0.225630 0.911776
